4947.72243579385,4978.79861062251,4997.056913635,5008.92769968098,5027.62391748232,5058.40720138765,5082.72524858915,5080.37195169307,5056.71082286373,5034.37527758668,5033.09936723845,5051.9964946994,5069.05681121148,5069.1118929599,5058.3226972165,5049.60433521561,5039.65007444059,5022.3854647907,5000.05681234817,4977.27379013276,4951.28563255422,4924.52129412057,4910.52106968087,4912.7407691865,4922.70797154576,4920.61477570141,4899.26963496675,4892.01253094859,4920.38752532288,4976.48984644427,5037.95201674714,5096.01155897612,5153.93789599636,5205.1605375174,5239.55619655137,5250.65284155938,5241.31931008348,5221.2821925997,5200.16723365934,5181.90251354701,5170.3422591758,5166.28687589866,5171.33959989491,5189.3385234985,5217.50143199029,5245.89550643733,5263.72709303057,5270.06913305386,5268.99203250299,5264.75342027225,5258.14964133811,5248.73976815508,5231.07441903962,5200.90292732165,5162.40407636273,5121.7329694408,5083.71646287021,5055.68249216281,5034.00349552446,5013.83138699831,4997.81970368342,4986.20036130585,4974.68181413297,4955.54192621055,4934.66323179926,4917.25249226064,4897.07021129723,4875.17865578765,4857.82847274745,4855.45120049739,4871.28210064712,4901.47617159585,4925.04372379736,4928.17345258819,4923.25555235011,4923.65353704074,4920.44601285787,4900.97475096426,4863.66778463314,4814.51232603751,4765.36390813549,4727.35067640117,4706.28732121058,4701.70398118071,4711.03747355939,4728.4572926937,4745.24477938249,4750.8327275183,4736.54641053039,4701.41783481872,4651.58619311629,4597.00478498871,4545.88819119262,4501.34402776742,4463.86698700748,4430.32871883409,4397.04658380319,4363.66631987562,4332.29445418178,4305.70921516563,4285.65432037227,4274.14147023831,4274.87159876971,4287.25115363544,4303.4445865748,4314.4110758668,4317.52790032009,4312.56689889944,4298.75487688146,4276.67800853956,4248.11900104628,4217.21427528335,4183.43906551789,4134.51291322152,4059.30966749742,3957.66624961627,3827.61966884539,3649.89592946678,3385.97777193228,3023.36833663817,2606.71993988458,2226.6555249636,1964.97292861827,1846.18108969726,1731.68366494194,1336.33722969923,1020.31826250921,759.188118617152,562.61000509391,415.94591179242,307.43828262918,222.188212621559,161.124472138427,116.69396425287,84.4993372819213,61.1833374730763,44.316844208675,32.124957373418,23.3136378097726,16.943498523861,12.3348843849361,8.99718102810561,6.57674504381916,4.81885283315757,3.54002247826891,2.6080664188355,2,2,2,2,2,2,2,2,2,2,2,2,2,2,2,2,2,2,2,2,2,2,2,2,2,2,2,2,2,2,2,2,2,2,2,2,2,2,2,2,2,2,2,2,2
4966.05167147649,4998.76551359339,5016.91816780248,5026.74828624761,5044.00765855987,5073.69936781144,5101.45442547521,5107.93907446824,5093.89006763306,5074.9417877301,5066.75170945594,5073.9046361453,5076.54046591775,5061.35836056956,5042.67653741138,5031.02281190251,5020.83428075637,5006.51108202081,4989.71281920514,4968.78279408953,4936.78380704989,4905.57874617691,4894.09314799434,4904.54325150568,4916.97667661442,4908.62862617993,4878.87896557188,4858.06601869516,4879.55570875026,4940.62934209569,5016.66559614506,5087.69399790761,5151.2079980558,5205.22433891857,5236.98084676732,5239.66599654883,5221.10425182437,5194.0258179126,5168.98989446715,5147.70677412529,5132.93483945088,5126.07054320012,5128.33596801201,5141.75567381387,5165.23450504817,5191.58073807817,5212.18881866308,5225.24483710857,5232.39316823047,5236.26974573634,5236.65608886337,5230.32975361908,5212.86667112639,5183.46950565213,5149.02687277369,5117.46625315646,5091.26392535068,5074.92572093088,5063.35279739607,5045.70335764163,5022.19685255993,5000.8645012268,4987.2948438074,4974.18097551355,4958.60980350142,4942.18423025107,4920.82266874982,4897.33289888488,4881.99684626181,4882.59472827813,4898.78739238649,4921.79131522164,4929.66270704588,4920.82029316397,4907.19358731202,4900.50995120072,4894.20768536398,4877.18749731557,4848.69235049388,4812.83326556359,4779.83646967555,4757.10218132989,4745.6585538078,4741.24028939784,4739.18875702892,4735.49497851911,4726.52402949382,4708.20978433965,4677.77676353887,4636.56571521042,4589.10586600337,4541.40261927075,4498.51420641147,4461.37534218156,4428.84131241841,4398.03583304469,4366.56550283769,4336.33874466425,4308.53662487446,4284.11609763917,4266.23395098074,4258.17693534181,4261.35705603508,4273.93322278173,4289.08352735941,4301.77196294236,4312.10150336774,4318.44634990432,4317.26936114125,4306.26264854355,4286.18069245338,4260.76590887689,4233.24891306204,4194.40462152022,4130.18645648886,4031.89152350089,3883.32896741013,3664.8336330485,3364.89461570009,3001.42935508306,2635.51145878932,2350.43535982987,2199.91897312583,2172.12067292493,2049.14474892424,1564.55986837389,1164.14164184827,862.708094819501,637.8128756542,471.426908092234,348.694786272779,257.730928984227,185.819180796652,134.456825453849,97.1441388330625,70.1866424499709,50.7451412743909,36.7264644105986,26.6145006705209,19.3158555067653,14.043163398424,10.2297241195975,7.46775679588628,5.46384686965253,4.00681275397279,2.94452149092558,2.16925040681146,2,2,2,2,2,2,2,2,2,2,2,2,2,2,2,2,2,2,2,2,2,2,2,2,2,2,2,2,2,2,2,2,2,2,2,2,2,2,2,2,2,2,2,2
4996.10940883881,5024.98199363549,5040.18496526518,5045.15882531575,5056.50701902533,5083.75731153334,5116.55098693802,5135.22874277274,5131.95573502736,5117.24247980614,5102.90585892496,5094.77736236845,5077.99827700321,5045.6866050407,5017.10760491726,4999.48903008534,4986.45268734698,4973.52794326161,4960.99899871283,4946.14899523846,4918.15745284577,4889.71966299447,4881.58123632185,4898.36538768054,4915.97964444339,4909.74530160349,4881.11128407414,4859.06454486652,4880.56857459857,4942.5704946236,5019.2421061954,5090.63623321653,5147.46938375988,5192.89469708,5215.32745049126,5209.63746948291,5186.57340468309,5159.3956357999,5136.15501735251,5117.75595217222,5103.59976119509,5094.16906784107,5090.95276262222,5095.43739034267,5109.01580654847,5128.71208618454,5149.4592695553,5167.47674941133,5182.81140716085,5195.9357194717,5203.28003616757,5199.08330716113,5180.94408308366,5152.39124104234,5123.58802929171,5104.32824900474,5095.88885812717,5093.45212510434,5090.95813007055,5075.72201222465,5044.57892124625,5012.94396773274,4996.14257315496,4989.87952956418,4982.57506157526,4967.41029027456,4945.96193050463,4921.45681267564,4904.39851303123,4904.959140212,4919.460924461,4933.30355697429,4929.55074718618,4914.21696049067,4897.03475329241,4886.94983655788,4880.19701904569,4868.477107505,4850.25283869027,4828.87762191974,4810.75166198707,4795.66237116886,4780.40177498568,4760.53274412247,4735.4345785504,4705.58804579342,4672.3090131822,4637.47713210514,4602.22847934831,4567.30029062101,4534.14325478874,4503.44038434974,4474.62966156189,4445.75482364778,4414.37046550605,4378.60351824052,4340.68873664988,4306.59540281892,4278.76484498847,4257.81958720139,4247.17058422113,4247.1707734968,4256.07568310351,4271.16611013847,4287.08682650807,4301.47862870256,4316.65849667723,4331.07592509002,4339.43345118799,4337.51311507814,4324.75602811125,4304.29615015991,4280.55567249044,4246.36951730861,4176.23482756988,4051.70489133584,3865.48676563318,3614.8708353378,3311.66758617417,2990.74827407366,2709.05804230868,2524.96777123503,2460.72774019917,2481.72989937505,2399.10177686413,1785.09875123475,1322.87952652631,978.024433051552,722.887624429407,534.689770412475,395.205482478785,292.155628448555,215.941116679366,154.96553124251,111.539720478905,80.4406385098126,58.0766754156881,41.9751329209079,30.3747487624899,22.0126388544033,15.9803911282165,11.62423540124,8.47400248927236,6.19190537332069,4.53550003774865,3.33097334022949,2.45341227535812,2,2,2,2,2,2,2,2,2,2,2,2,2,2,2,2,2,2,2,2,2,2,2,2,2,2,2,2,2,2,2,2,2,2,2,2,2,2,2,2,2,2,2,2
5032.62580917474,5054.56572995216,5066.14671814862,5068.12352732115,5072.20674987898,5092.8435938875,5126.28237113527,5150.69485298846,5154.18822435391,5142.3568857506,5122.58854482298,5097.75334215615,5063.4545062285,5022.84944151726,4984.75062538364,4959.94710513349,4944.33011810076,4933.74467670547,4927.15183690846,4920.82302172014,4904.79093086405,4886.53693743026,4882.37526979212,4901.06777960939,4925.10579917882,4921.48136412965,4887.93206558606,4866.53807224431,4895.99730709582,4966.54354212409,5042.92719714761,5100.46899269723,5140.97425987335,5173.772163652,5186.09806168365,5172.92724093524,5147.20515926819,5123.44864622059,5107.87231964788,5098.73360276569,5089.78156241529,5079.27714793525,5068.68443506384,5061.02386818546,5061.9680759279,5074.02570128961,5092.0363884727,5111.27792697895,5131.72881959139,5152.00473340386,5164.34773157916,5161.77743894599,5143.54259489218,5115.83237957855,5093.15295667226,5085.56490222109,5093.47885086566,5104.9612624744,5108.9853168476,5096.70788266958,5063.71004104573,5026.39079375931,5006.68148423925,5004.24311015625,5004.21120992672,4991.93149660887,4968.65634506697,4941.65252137533,4921.2546516362,4915.21008946196,4919.53187913088,4923.13259268847,4916.51732989745,4904.50515796684,4891.74652349562,4883.81933246206,4879.64592960649,4873.04079421614,4862.83168266581,4851.00031061231,4836.0684994436,4812.5012396706,4778.80225840877,4735.77468926227,4687.46384976941,4638.70119021502,4594.90390813603,4560.47798680869,4536.25247763468,4516.96860694915,4500.4608588554,4485.529463694,4467.44890592647,4440.96408878298,4402.81216256256,4356.97025544263,4312.46336346375,4276.52386066535,4252.54151276148,4240.38982491928,4239.69594354316,4247.87865788552,4263.86260885267,4284.63565811636,4304.3034974902,4320.53774808698,4337.01678599087,4353.4959793486,4364.78512870333,4366.91276307045,4358.29502494595,4339.4619969598,4305.3701608026,4239.99311379097,4121.76502526801,3949.0948816861,3734.80128475321,3489.21516550508,3231.0812282486,2991.95758994983,2809.3842471009,2711.6960683778,2696.10614795918,2723.34514863817,2737.27649335313,2028.50796408204,1499.70599161938,1108.47834163171,819.895111250945,606.009430055046,447.992433639842,331.124842255534,244.75106303879,176.519628526567,127.614652937652,92.0564853991155,66.406044596636,47.9236256636271,34.6201614163948,25.0472873805735,18.155431503883,13.1880525167935,9.60189354752036,7.00768489671492,5.12668900160794,3.75915525042092,2.76218362680351,2.03519089687036,2,2,2,2,2,2,2,2,2,2,2,2,2,2,2,2,2,2,2,2,2,2,2,2,2,2,2,2,2,2,2,2,2,2,2,2,2,2,2,2,2,2,2
5067.8206384217,5085.35320101411,5095.11891224357,5096.48255928986,5093.44361149535,5100.30171437987,5124.53106252702,5146.09592090077,5150.32627947887,5138.76317644379,5115.91231501674,5083.78232356173,5045.25616626194,5002.99910696157,4960.57245160849,4929.78692999132,4912.64326667722,4905.48295594421,4904.10182191876,4907.20753300578,4905.94941599177,4899.38414468867,4898.32400869448,4913.03421848387,4932.54416578349,4918.68647458251,4876.77362201137,4858.89191999736,4898.61562554214,4980.88110263705,5060.24936490265,5104.36147823522,5130.77777399286,5153.07957246712,5159.57464174827,5144.57527126134,5118.18755220527,5096.7812018307,5088.4725657336,5089.99660949581,5088.73040307825,5078.38261147825,5060.66776619354,5041.53602880852,5031.19537497594,5034.97640293429,5048.69532753078,5066.38369585202,5087.81668428047,5110.83571460453,5125.77294204604,5123.76498643991,5105.27571472551,5079.96133223179,5063.00700468047,5064.91052876604,5084.87191685502,5106.84595511951,5115.26067363278,5106.24583264443,5079.94768346324,5047.22894355956,5026.71000328085,5022.74702090171,5022.34474699847,5012.08200985045,4988.138280296,4958.70270332217,4931.97763624979,4912.13346236544,4900.92245677053,4896.52244071025,4894.45096396316,4893.13649446522,4890.50148827192,4888.73309369571,4886.94759697896,4881.32533318192,4871.3298202211,4855.00134802932,4827.56263491608,4787.99350462907,4737.66200469518,4679.40604895777,4619.06586178421,4564.96090752809,4525.87399496362,4505.78926320977,4498.67999782232,4493.88726981695,4487.67410308515,4478.48077029151,4460.23305290294,4428.47693537623,4383.96928562626,4334.57992528913,4291.81735343453,4262.47999264139,4248.28074739884,4245.74425343196,4249.94058040275,4261.88310471927,4283.26656397255,4310.65646512902,4336.09328397152,4355.55604114687,4370.54002993265,4383.11556123023,4389.7954441023,4385.2832094508,4360.51154757229,4309.05325658084,4227.39008234634,4105.54399663,3935.29127181798,3730.22363486325,3518.51295011551,3320.00711766375,3146.38222145734,3009.15056716531,2918.81408821832,2879.31104679766,2877.75325441917,2885.71601926199,2882.91857586526,2299.39558628451,1699.55325408411,1256.19152820457,928.489383020234,686.274755149878,507.246553562112,374.921362691539,277.115788178013,204.824712357151,146.542413805684,105.4683357584,75.8354583088426,54.5707479125286,39.3332899102762,28.4093843752839,20.5666895554439,14.9252107991356,10.8580718249878,7.91885466176462,5.78943673259348,4.2428923624382,3.11710561385677,2.29619940177517,2,2,2,2,2,2,2,2,2,2,2,2,2,2,2,2,2,2,2,2,2,2,2,2,2,2,2,2,2,2,2,2,2,2,2,2,2,2,2,2,2,2,2
5097.86042325893,5115.75961664045,5123.64749575371,5122.01719560545,5113.34242662099,5107.07175607278,5113.10255628378,5123.13099417716,5125.14019488713,5116.62545194259,5098.68478704234,5072.72262973968,5038.90892107991,5000.01955316906,4958.90838023905,4926.57103189169,4909.09588351765,4903.90036333818,4905.75008335276,4913.22324887717,4921.09327992949,4923.02858812939,4922.67398435064,4928.80622729935,4932.91576990768,4907.66505410163,4867.24279477062,4857.2079765791,4902.01996913025,4983.44297131911,5059.7920936427,5102.08718869245,5120.04652061132,5133.66375513709,5138.29285945956,5127.85322366175,5107.72338109732,5089.85166598254,5083.4508553506,5088.97830306243,5093.82108651142,5085.8517541949,5064.61503201693,5038.30049179094,5019.15472266091,5015.10654210366,5024.50044600774,5040.3314808939,5059.45947202022,5079.3821375383,5091.86167583907,5088.44182023927,5069.98602869882,5047.3823692691,5036.20008376917,5044.58788965942,5070.40808716923,5096.91759155201,5109.7228989745,5106.3248618317,5090.88881637742,5069.61860607565,5052.73188271993,5043.97771942694,5037.74632635573,5025.93505505762,5002.26067655616,4969.83429554003,4934.2204426689,4901.5826332648,4878.07087926906,4868.61619191661,4871.84321420084,4881.55200564689,4889.9408140317,4893.52457095935,4888.79969115608,4875.23388854079,4852.58223582463,4819.40517818625,4775.55195337713,4725.07947719541,4671.18006457204,4615.31742579309,4562.26531021979,4517.74132698141,4491.35210470516,4486.45713944832,4490.61615723213,4491.83785126153,4485.76696101315,4471.49924524051,4446.66005037842,4410.94999534767,4367.94862594444,4323.96912513019,4291.59820375211,4275.68045525208,4274.11120823709,4276.78461428224,4281.10774988148,4291.36370103116,4312.32312159507,4342.11795372357,4372.29515674986,4395.05479926773,4407.68771291533,4409.11497332462,4389.3547035566,4335.2742488854,4247.51072934028,4136.12975538786,4004.06384266234,3845.35108611129,3659.57879187093,3465.62200534796,3293.96172504686,3166.70898694297,3086.2945677119,3040.6238739656,3015.96594262428,3002.94004667983,2993.9483166141,2982.13303831428,2971.0976368254,2561.64805199115,1893.39179135537,1399.46315059625,1034.38545358216,764.545462987002,565.098581837854,417.681392742248,308.720923948906,228.184974106836,168.658437113832,120.177808221272,85.9692709855355,61.7083068632122,44.4258656959725,32.0725210307974,23.2161530136711,16.8490825492822,12.2592620016947,8.94194271638182,6.53830347317421,4.7925297856556,3.52168518817129,2.59446102759812,2,2,2,2,2,2,2,2,2,2,2,2,2,2,2,2,2,2,2,2,2,2,2,2,2,2,2,2,2,2,2,2,2,2,2,2,2,2,2,2,2,2,2
5122.16991724283,5138.78321391153,5142.40165025719,5135.66134785374,5123.20025416836,5109.35183630168,5102.18746154402,5101.97931077026,5101.93119009377,5099.73687999925,5092.79939742769,5078.05870061498,5054.0292483883,5020.87206413213,4984.91054295453,4956.34999608482,4937.40411454984,4926.67773395423,4925.10211734268,4934.22180644599,4947.236087852,4951.56208056678,4948.28955462286,4949.17133743286,4946.28799333154,4922.54949326,4894.03705828387,4890.10146613083,4928.75357075974,4998.16413699564,5065.43584554499,5102.49732448683,5112.16543936272,5120.25187268161,5127.96602423865,5127.40311460247,5116.89926544688,5102.82619800252,5093.78723657466,5095.26970435329,5100.15851030486,5094.35840036891,5074.10968171454,5046.84668273238,5024.69022460023,5016.35921446721,5021.21547905677,5033.34861413587,5046.84996089438,5058.71385832636,5063.29945996726,5055.48818239405,5037.03915412035,5019.01748302974,5013.48910911538,5025.58153538331,5050.95809074798,5077.03004091133,5092.98436324433,5097.46175618956,5094.43933349704,5085.81751718266,5074.08302083521,5060.22435756698,5045.01443825636,5027.34596147382,5002.88321199172,4970.39153810809,4931.65548936732,4893.56449354637,4865.49552902964,4854.14601141823,4859.92825281513,4875.50924924114,4888.40444809929,4885.35832720325,4864.01363519126,4831.49246880216,4790.50927542209,4740.38982650717,4685.35529105695,4635.33734042889,4594.46692857608,4559.33840261268,4526.75409664065,4499.73091270599,4486.17778838892,4489.18150422559,4495.70918727799,4493.85707250136,4481.80207703121,4461.3762734584,4433.52281707727,4400.0119991219,4364.13191985897,4332.64650148473,4316.11321443113,4316.12219422551,4325.30956776581,4331.00914474637,4331.8176473134,4335.24099629358,4349.84794492687,4376.56105271684,4407.0632785952,4428.77221488468,4426.82430570823,4381.17773596296,4283.08557892018,4144.56262296423,3987.30416842013,3831.48031813387,3682.38239000737,3533.4799325475,3383.61263407135,3246.03032972517,3141.89907214436,3086.3154117024,3073.63576391429,3079.67118943038,3081.77047589822,3072.78605060337,3057.50956951154,3043.25982444033,3035.11433321372,2853.08791067409,2108.80376727824,1558.68056651097,1152.06775764727,851.527919311251,629.389872256985,465.200978675989,343.844056231641,254.145528699565,187.846664785011,134.08675923152,96.1631835423156,69.1600049501217,49.8764059249868,36.0658457489034,26.1461578014349,19.0009384503929,13.8404034095098,10.1039613937833,7.39224191500074,5.41969230378563,3.98143509413327,2.93001542866046,2.16054730431615,2,2,2,2,2,2,2,2,2,2,2,2,2,2,2,2,2,2,2,2,2,2,2,2,2,2,2,2,2,2,2,2,2,2,2,2,2,2,2,2,2,2
5138.77795199992,5150.70631620854,5149.83023507156,5139.96260270324,5126.41950024833,5110.0162779339,5096.29668522542,5092.47173840271,5095.98382080907,5100.90497845498,5103.89449547144,5100.29989952226,5086.52611871686,5061.0674849081,5030.69288292869,5005.9137770315,4979.91415828331,4958.86202107417,4952.30154208798,4962.93357630321,4981.10653309534,4990.36471639863,4985.06332369202,4984.73361908226,4990.4334604951,4980.5562472745,4962.93257270693,4961.97600384452,4993.12084475614,5046.43427660181,5094.50128886289,5113.44525676704,5113.19051703784,5118.74853896234,5131.55118254341,5141.05869353035,5138.35103055798,5125.94013672639,5111.89225207629,5105.20728648704,5104.81638195283,5099.69093583569,5083.62432779014,5060.41074190873,5040.71017539677,5032.45763013831,5033.14051808375,5039.16410150035,5043.84768751047,5043.97332307888,5037.61860962221,5023.89377539381,5005.68535648067,4992.45667230182,4992.0785608977,5005.77788853031,5027.95942302176,5050.48238651116,5066.4124588735,5076.03765624602,5081.96033182353,5082.56797271289,5075.76758209342,5060.23438371525,5038.74722890337,5014.56295453691,4988.44449932295,4959.21174076257,4926.23216682706,4893.09033061744,4868.3766443913,4859.39801254502,4866.40084580672,4879.0511951783,4878.43307190615,4851.3689648925,4803.33273115655,4749.15077264988,4691.80044745368,4628.27112005591,4568.18256211198,4529.73245779406,4515.53420010048,4510.99708916871,4503.35777080019,4492.0577840785,4485.04258623175,4489.16688941592,4494.68005573462,4491.26815683801,4477.8392707178,4456.83819088267,4430.94568023578,4403.05346018988,4377.53232910567,4361.34833822179,4361.20690373631,4374.07471006553,4390.04463787169,4396.86585508856,4393.02256483724,4388.45581604008,4394.49187858884,4413.77531449655,4434.22507057887,4425.31746182849,4355.24085587457,4216.82812952039,4030.47185168827,3828.83787163007,3641.40812161512,3486.43362211068,3365.62824608673,3269.37940100318,3189.93982760206,3129.0160834871,3093.24806617673,3087.30731553725,3100.97461027456,3112.76021083877,3111.92361744161,3103.69403109201,3092.91999904176,3082.19960795468,3076.00067696174,3054.31324184984,2257.53416642427,1668.609787393,1233.31777460723,911.580476206668,673.775082760475,498.006346118763,368.090747977303,272.066522430121,201.092355057432,148.633367373256,106.972911893081,77.2002288340748,55.8678948040469,40.530270134493,29.4668415319275,21.4647009695691,15.663787469554,11.450572715214,8.38526367774465,6.15148881665969,4.5211290917032,3.32950053128247,2.45729341736413,2,2,2,2,2,2,2,2,2,2,2,2,2,2,2,2,2,2,2,2,2,2,2,2,2,2,2,2,2,2,2,2,2,2,2,2,2,2,2,2,2,2
5148.78875601106,5155.17610549276,5152.01831459385,5141.6167618816,5128.04574730959,5112.48932460416,5098.19337654272,5094.52556259964,5102.26974168395,5112.71058725693,5122.85148789943,5127.82856975223,5121.9597627915,5104.95300119213,5081.84102269477,5056.49815706758,5023.74397498888,4995.04953411305,4984.60880245312,4995.42316215711,5017.80573345516,5035.34008817367,5036.19369481279,5035.61960946011,5048.57386940596,5057.16214395655,5055.03502870978,5057.82456461232,5078.74400954804,5111.45013542219,5134.11273915903,5133.49395538516,5125.49343089648,5127.95820866695,5142.82296593635,5158.03326742799,5161.41382776788,5151.388320078,5134.37979122912,5118.42687548671,5108.69072001695,5103.18531987087,5092.94939882226,5076.62425274875,5062.21219006091,5055.3927776272,5052.9111005018,5051.52747909543,5046.21383361744,5033.67931172561,5016.47283503858,4996.75828556493,4978.40628008498,4968.56833439338,4971.22023361325,4984.39950122176,5002.82245769398,5019.54182507729,5032.14627990444,5042.6869358367,5052.58813898422,5058.4914893732,5056.53853717895,5043.77721662352,5022.11566632388,4996.64448931012,4971.03923484347,4947.44324936127,4924.04292258323,4901.13447930038,4884.59788779934,4879.34230998841,4880.68357384249,4874.27582222789,4844.58759122456,4787.28333999633,4716.49934641078,4647.80683321664,4577.05251316347,4498.54050449636,4432.64629763901,4409.63033795703,4430.83914915045,4464.3615816956,4478.7651914952,4475.32682663083,4471.02553819202,4477.16751677552,4486.74490315058,4488.8422799278,4480.70711520559,4464.8346606158,4444.71163524317,4424.20437784895,4408.69906909372,4406.03646222145,4418.04616869924,4437.17878433482,4453.88043458728,4459.08355202087,4452.01169845678,4442.12080388259,4438.57481722872,4434.28262927792,4400.94024690346,4307.01165097705,4140.08898506774,3919.61797572775,3686.13198943609,3478.53730019249,3317.9359253759,3208.44915900593,3143.81299665254,3112.86959213496,3104.17211963183,3106.70680966677,3111.45490512091,3117.29953289838,3120.64700109583,3118.56730232649,3115.09109313209,3111.21257755838,3105.36051130845,3098.25420139792,3093.88774106563,3089.96518332851,2484.13215343134,1836.09722673399,1357.11470618392,1003.08413650951,741.409452352996,547.997854421236,405.04158559506,299.378370365993,221.279561464056,163.554418220406,118.646588632457,86.1626769177105,62.7214905960906,45.7242622180423,33.3679212421092,24.3734855944021,17.8211217727115,13.0448219690142,9.5609218755676,7.01778184675743,5.15966226998756,3.80051923446771,2.80499588833531,2.07138361664384,2,2,2,2,2,2,2,2,2,2,2,2,2,2,2,2,2,2,2,2,2,2,2,2,2,2,2,2,2,2,2,2,2,2,2,2,2,2,2,2,2
5153.18901745288,5155.53578195335,5153.20152721278,5145.15229056165,5132.93982481377,5118.52385259058,5106.25958406905,5102.58255779497,5110.06167178232,5123.54120821557,5137.72728325059,5147.53988616197,5146.88830081883,5136.72971100107,5121.3404496072,5098.8239593638,5065.04981431081,5033.37693288126,5019.44045576642,5029.26510612274,5054.84403670628,5080.00061320291,5088.99430547793,5088.40196360146,5097.95778652607,5114.67386438042,5125.85353837884,5131.79063493335,5141.5403734389,5153.86958307328,5158.1203244019,5151.96394391478,5144.08014138938,5143.99193553072,5156.35418006893,5174.14346875422,5184.34177443826,5179.80959979916,5162.22379462548,5138.73375806593,5118.13673247063,5108.21075286189,5102.40940239831,5094.18949056564,5084.75404805599,5078.61478261091,5072.77806019629,5063.82613684682,5050.08871125601,5029.27589070153,5004.60755233749,4980.76834118531,4962.31949724703,4953.71852754041,4955.56053863082,4964.64737721799,4977.06867852723,4987.30796716943,4994.5835936788,5002.07241191358,5012.58964617728,5023.01966491777,5027.67640288483,5022.07203119498,5006.42132191246,4985.89272561544,4964.57493603761,4945.82756994448,4929.06498501049,4914.61565547722,4903.2189979701,4889.37057798747,4867.53540419092,4831.93444250545,4776.97414059593,4703.36876899416,4626.2296846417,4555.91419460273,4473.50927552648,4377.98726569761,4305.50550017919,4293.21508844496,4344.24256235045,4414.5285707918,4449.48582245409,4452.1478027118,4454.06368160566,4465.40091622371,4480.4567008523,4490.7230701598,4491.23003962051,4484.11021799029,4472.71959276838,4460.15775723202,4453.23656835263,4459.10962186144,4476.07332870011,4494.345181323,4506.08498864115,4506.46752146454,4496.62259817152,4476.6985328954,4439.3371844227,4369.68503222903,4247.71355485751,4062.27533572665,3826.74074197033,3574.96832895808,3355.50850205735,3200.87375474015,3106.86571743971,3056.63784667391,3037.90850000972,3044.69127629022,3073.48163652402,3105.66346462545,3120.05972607643,3117.02535672422,3109.98503946315,3105.03923868633,3103.20736706,3102.74786492503,3100.09277957626,3095.47289796568,3093.3680797638,3095.27213102764,2729.6152456447,2017.54125805054,1491.22552127079,1102.2095310665,814.676056578133,602.151437867427,445.068151778747,328.963226465334,243.146630537158,179.717035083025,132.083083499174,96.9933505093048,71.1209206562397,52.0916079195373,38.1293530796481,27.9040744818598,20.42527991196,14.9595788693218,10.966439672931,8.04888618230457,5.91616742017602,4.35577836202712,3.21263249496769,2.37466573948843,2,2,2,2,2,2,2,2,2,2,2,2,2,2,2,2,2,2,2,2,2,2,2,2,2,2,2,2,2,2,2,2,2,2,2,2,2,2,2,2,2
5152.17035329298,5152.72693984758,5153.32578751203,5150.98583374157,5142.9526312374,5129.51546480427,5116.41013253179,5111.1907791019,5118.01025479331,5132.25704387034,5147.58316739142,5158.14390588491,5158.78508704927,5153.16582849723,5145.53621222563,5131.15872017041,5103.01880251893,5073.63019935321,5057.27526902793,5063.38397286449,5088.4921939883,5116.51795753434,5129.22869982444,5128.69396748345,5130.40623426261,5138.84664561805,5149.88991145524,5157.10894695217,5162.09768585585,5164.80248572604,5163.89695358229,5161.19521639365,5157.83766050296,5158.57291654124,5169.62757526637,5188.66145165394,5205.8305096135,5208.25677331439,5192.58668839776,5166.20596692108,5138.26968160888,5121.05498549594,5113.7769666251,5109.80193488957,5103.98427203247,5095.07155594546,5082.28293981903,5066.24416672988,5048.05633732265,5025.48923394837,4999.72504930198,4975.3794568467,4956.30929752081,4945.79661860562,4945.03900486105,4949.17451956398,4953.99807771268,4957.03896128289,4958.25907089277,4960.7409721002,4969.83882014718,4984.76659419967,4999.06775311777,5005.38811065252,5000.42901487057,4986.60195231216,4968.2520833801,4948.99530490436,4930.41571085451,4914.18288726769,4892.20594404737,4856.62374713287,4807.48230955382,4750.7519865068,4687.20779249363,4620.11744852416,4557.59480782715,4498.89192028468,4412.33904059579,4308.16873297065,4231.99001609623,4222.39846567135,4285.02727292741,4375.06798287529,4431.44903304738,4442.05166670759,4449.53639229571,4466.14732440054,4485.04992421784,4499.61980845633,4506.66155351799,4507.33324519487,4504.64611363558,4501.74533601729,4503.10334353194,4512.01728047563,4526.59257721443,4537.71103401806,4539.83141685327,4529.56922434537,4499.14846223322,4436.52444635267,4334.3856717644,4186.07987751148,3988.01834980367,3753.01136986817,3507.66713444412,3286.65199409975,3130.33955671871,3054.53394489328,3026.90246249692,3012.53701414113,2998.81790632657,2993.22990683426,3015.52233042614,3057.79202966356,3087.97418661998,3093.62799351788,3087.83874839812,3082.65954619479,3081.50190394773,3081.73930248498,3078.8036673277,3075.17537017146,3076.46356865237,3083.88049479857,3026.02590138017,2236.62784014941,1653.15970793505,1221.90065368987,903.143961422147,667.541188876897,493.442462998422,364.718342216224,271.794263218603,203.498944836166,151.323021450651,111.624123964843,82.0305601762749,60.1520683704286,44.0522445716144,32.24041340672,23.592602513569,17.270190939865,12.6516848826408,9.27886282605255,6.81528556056148,5.01477183243105,3.69770077906642,2.73603056762076,2.02629214011388,2,2,2,2,2,2,2,2,2,2,2,2,2,2,2,2,2,2,2,2,2,2,2,2,2,2,2,2,2,2,2,2,2,2,2,2,2,2,2,2
5148.2893518796,5149.75541744452,5155.37063077338,5158.81462367782,5155.00782761098,5142.28438102931,5127.13495922211,5120.90010670204,5128.2868427183,5142.88428452269,5156.55190648647,5163.66827852655,5162.58892652189,5158.43007504411,5152.35819579891,5144.62271982504,5128.61380833986,5107.79605968912,5094.80280645831,5098.55098893969,5118.0452650923,5140.54107959149,5150.35909043575,5149.779737344,5146.86199208702,5147.74812508768,5154.94795947531,5163.78585973857,5169.71147618217,5170.83048660874,5168.13182174939,5164.55651563449,5162.55086384411,5165.81576163913,5178.60086392663,5199.80382250381,5222.97300789349,5234.13554475623,5223.93132742527,5197.69605078955,5166.25977213418,5140.97179467326,5127.04198840536,5120.45425425212,5112.50814573617,5099.04562656686,5079.75432510179,5057.53455534133,5036.26625884609,5014.72784085288,4992.16246219314,4968.66588871912,4949.41031452858,4938.09578226255,4935.35261356387,4936.74936852109,4935.56293478547,4930.98818653639,4925.93031570276,4923.90388484569,4932.02047206168,4952.09233017425,4976.87636842358,4996.76823223937,5002.9559169178,4991.98764125289,4967.74045377362,4935.19774485066,4903.23871036586,4874.09480721005,4836.05785596192,4782.73286925742,4720.0610618929,4660.16981196047,4606.09794625766,4561.20681177246,4526.49255998261,4489.208492995,4409.94447990789,4305.19780990623,4226.26948138289,4215.28688635304,4278.53140098684,4372.16454772641,4435.67005289264,4451.82098527186,4463.14260248398,4483.49551049363,4503.91873265637,4516.24646666868,4522.75132909621,4525.90655559008,4529.94709114619,4536.88209831428,4546.04863953733,4553.23629280089,4554.37906615391,4548.86509528001,4530.99279023071,4487.02814936363,4405.0923835577,4277.68984569429,4111.04978004356,3912.81702768059,3692.47030475748,3469.94294155022,3269.63583913848,3114.76053756871,3030.03863098031,3013.03393975205,3014.44752259099,2995.31374487723,2951.11321159214,2912.10122631642,2920.27286997083,2978.53528623811,3036.67123849406,3064.09690441506,3066.84202197655,3059.73636789488,3052.86771536375,3046.47366679062,3040.43714143241,3038.89923545333,3044.58405026658,3057.62806997182,3067.25581210913,2528.14700265612,1868.77161551748,1381.26597668683,1021.33989444346,756.646456669186,559.260424494614,416.774622731371,312.068593629454,232.059834202172,178.227322430242,130.825009649475,95.9339427925809,70.2464880311743,51.3738307231712,37.5433345973981,27.4305783934124,20.0483294711546,14.66463259555,10.739830824664,7.87796333318513,5.78960082123842,4.26374277627786,3.14599097748135,2.32810490601558,2,2,2,2,2,2,2,2,2,2,2,2,2,2,2,2,2,2,2,2,2,2,2,2,2,2,2,2,2,2,2,2,2,2,2,2,2,2,2,2
5144.23521533148,5150.04734476299,5160.89864697205,5168.50572318524,5166.98628899967,5155.03265202239,5139.47289931371,5132.64473904899,5139.78168559231,5152.94126023391,5163.009980039,5165.5192886099,5162.66381164555,5156.3559650767,5147.74571735859,5142.83956433399,5139.25904382805,5131.23675564026,5125.2286266177,5129.197157145,5138.89429836689,5149.43946736196,5156.08880228299,5156.02368814056,5153.16546266689,5154.76284533498,5163.02650001493,5175.31260966604,5183.89164420944,5185.05223677273,5181.98804188267,5177.03300331397,5172.42060708075,5174.16982125977,5186.83950978232,5210.03205958536,5237.95712264291,5256.84929131258,5252.7260112361,5228.21273690252,5195.10224807766,5164.03145121234,5142.1999877215,5127.2426268948,5111.45118428269,5092.31786499423,5069.71111034173,5044.63629529015,5019.91657059732,4997.03036378393,4975.21540503208,4954.03288719609,4938.25693251514,4927.95057026271,4924.56655986128,4924.15841586684,4919.37289148775,4910.10792987325,4901.28486140183,4898.57200348006,4908.44767400791,4933.75504792595,4967.43681589202,4997.28221631235,5008.59426938784,4991.07647941578,4948.18526269514,4892.34481660511,4840.80495545635,4799.26933335021,4755.58996508314,4702.46476008238,4644.22407082806,4594.93441275145,4559.99832449229,4540.2184690055,4528.85186420879,4507.11434853274,4439.05714906401,4344.64481403762,4276.174156421,4269.13091552301,4324.74910335588,4404.83084105744,4457.1278828737,4473.4643113711,4489.51720037648,4510.74780022981,4526.43792926356,4532.31909704904,4533.6483455529,4537.14371203226,4546.23866995804,4560.20188997912,4568.13434838953,4553.871045803,4516.98900542128,4471.94940839509,4414.00452900412,4326.09592819693,4192.73037192377,4015.55295459753,3816.87063343269,3617.3698970507,3430.94474951394,3269.47424462833,3141.97338602096,3047.57459163869,2997.80119637751,2987.60453619278,2975.67664815836,2936.00792396487,2880.61232968227,2838.58769955015,2837.9796244252,2894.57917098254,2974.3097063225,3029.01332140347,3048.32923964825,3040.83425552238,3022.451115607,3005.1877502431,2996.8344536802,2998.33695719817,3007.00676652919,3022.38527374198,3042.15065122128,2865.58074680444,2118.03794329024,1566.12606546384,1160.24451331868,857.572031583367,639.095244862625,478.589549660526,355.898262054278,273.331352447603,209.903880231145,154.488340767875,113.207492536256,82.7126441816205,60.3265230096731,43.9638872411571,32.0373605144757,23.3587383843344,17.0485925316739,12.4609994030014,9.12408399773919,6.69444705175493,4.92288687417467,3.62919018462496,2.68512326434381,2.00381036354634,2,2,2,2,2,2,2,2,2,2,2,2,2,2,2,2,2,2,2,2,2,2,2,2,2,2,2,2,2,2,2,2,2,2,2,2,2,2,2
5142.97156350568,5156.0214255453,5172.29161944173,5182.82343415833,5181.81266758511,5170.82096222992,5155.86158928413,5146.43022243399,5149.39718940967,5159.56925932849,5166.30368894203,5164.70897388854,5159.14825394943,5150.03792938215,5141.36596110946,5138.85722979659,5140.02112647054,5140.87406126202,5141.36007298786,5144.80457080363,5147.46466246429,5152.83827111309,5158.29051889944,5158.9577052787,5159.18848261758,5165.02629207526,5177.27137257383,5192.89085004594,5204.74458312566,5208.94233175439,5208.2986027949,5204.2384480152,5198.20756306258,5197.89090883947,5207.29415736201,5226.79349274312,5252.69921817428,5273.09049912859,5273.72697520451,5254.08509589518,5222.55105323584,5189.36068399599,5160.6487661372,5135.74149591427,5110.60837922811,5086.15196922002,5061.2110854403,5033.72662586785,5006.05219589836,4979.34648522344,4953.72084773738,4932.69938570228,4920.73407039916,4913.54616361404,4910.18444015151,4907.67688500407,4900.26059976136,4891.1690346273,4886.48855884393,4889.64069207341,4905.32162400624,4935.15911218441,4972.97983410685,5003.58893027226,5006.46219096303,4969.60343126313,4902.38745197762,4825.50851646849,4762.12714695955,4720.81295256872,4688.33245508813,4649.70002352535,4604.98397271099,4569.35156422711,4552.00806648184,4549.2098539904,4539.54116244907,4513.04878697132,4460.51204220448,4394.64021665391,4351.92081228213,4355.50097561086,4398.93141537009,4452.1164031008,4483.91106169886,4497.62904011012,4516.01959157391,4534.56025594011,4545.32808148108,4545.39523014154,4542.66219683728,4546.98340436921,4559.52677540454,4568.85562104513,4544.18714468062,4465.28694930053,4356.14832911309,4251.11382777315,4153.65575506781,4042.21481839108,3893.23423038174,3709.31911263716,3521.81399332409,3364.07596969392,3245.32533334162,3162.57667413332,3101.66247159739,3037.07468847727,2971.54964016375,2921.61607434362,2882.79133138823,2849.09778704752,2817.11360979642,2787.6899118056,2778.15621245441,2815.51454330566,2896.25936106248,2978.19662161701,3020.65795919839,3017.93565532045,2991.86093738725,2968.0486140158,2961.08580089145,2968.487693254,2980.31615944874,2993.91940655116,3012.6950885624,3018.40821312377,2401.50303172262,1779.12328647125,1315.00416826135,980.011398902835,733.990381727585,545.844469096908,419.229397226972,321.905378176421,253.661229497187,185.31476915721,134.854514782276,97.9564414784738,71.1063296058101,51.6159919695064,37.4879833567625,27.2541880544006,19.8419675385925,14.4710239397427,10.5756499728044,7.74675616681978,5.68901117155384,4.18931176228291,3.09318325610806,2.28595115383395,2,2,2,2,2,2,2,2,2,2,2,2,2,2,2,2,2,2,2,2,2,2,2,2,2,2,2,2,2,2,2,2,2,2,2,2,2,2,2
5148.10578167475,5168.97363249737,5190.97994564334,5203.77954391591,5202.73765158642,5190.71735955765,5174.20199586481,5161.39619141965,5158.94852387255,5163.86090360872,5166.44443283282,5160.38926382736,5151.19559942583,5142.1596812956,5136.29258561426,5138.03962135888,5142.95311767838,5146.62421009343,5149.00295607823,5151.29444875728,5152.45334078973,5158.13147812456,5164.75522016987,5168.08647161445,5173.06722437917,5182.70349870199,5196.62353698875,5212.69053481399,5226.86192159508,5236.05224199698,5240.31620759884,5240.22674099169,5237.11377471743,5236.51878114835,5242.40782929415,5254.84070955877,5271.95467582321,5285.89067163907,5287.68200294843,5274.79667091505,5249.64177728021,5217.83760415242,5184.63416313262,5151.33239670586,5119.33695057373,5090.66916622642,5062.85766101097,5031.29545832761,4997.53530728476,4964.74470539125,4934.47945918269,4911.4692207382,4900.14408466663,4895.99433485079,4893.71678412266,4888.97943687856,4880.93077572629,4876.75630938966,4882.58059369091,4897.74440958304,4922.01425732648,4953.09872467884,4983.36112919744,4998.79753337164,4980.25366757607,4921.14453186336,4836.35303005999,4753.01592380575,4694.19422321166,4667.87648018257,4655.86825044858,4633.69653981563,4601.00206636051,4573.98651891753,4563.34231693229,4559.67952026174,4538.3587994589,4501.41955201866,4465.28751967465,4434.65002918438,4421.39213386056,4435.0434711959,4465.86308511416,4492.82014931984,4507.65147789928,4518.45746684731,4534.20210449593,4549.26883068674,4557.95116158228,4558.56226871991,4557.59797139787,4563.84906653142,4571.17004263912,4546.64251254086,4445.47122120763,4266.05838515624,4066.66925199623,3903.72929482232,3790.2767693265,3698.31680631847,3583.12193965304,3435.72350781077,3295.98796371461,3200.11877691969,3149.46977754777,3126.09446243542,3099.6315526066,3033.63818825242,2933.79390816598,2845.64021623655,2787.36506357304,2760.37539626352,2750.14933261489,2736.47336449693,2722.26747550621,2740.12313878285,2806.3634126208,2898.77656103348,2963.57074242932,2970.95525803887,2950.13026743223,2936.92095731878,2944.89396392204,2964.25527170351,2978.46710475449,2984.94464564986,2990.93458436043,3000.40717725724,2728.11407941279,2016.43214565292,1502.780137729,1125.68667844741,837.166730578655,643.043202238457,493.71596754264,388.973968651598,308.720706156281,222.290063756637,160.359808575417,115.827314150928,83.7072770081949,60.5366680943843,43.8267205332475,31.7753966401892,23.0791480666242,16.7975588254023,12.2537315255893,8.96112073501671,6.57018093355149,4.82975247712949,3.55946517898299,2.63084818388,2,2,2,2,2,2,2,2,2,2,2,2,2,2,2,2,2,2,2,2,2,2,2,2,2,2,2,2,2,2,2,2,2,2,2,2,2,2,2
5161.86347274883,5188.25234402769,5213.90117527083,5228.35633703217,5226.95034540105,5213.83361520899,5195.29716625683,5178.53899339368,5169.65352799554,5167.84467999954,5164.85452692339,5154.59231432444,5142.65462035164,5134.60873779373,5132.77231843309,5140.11556138395,5149.80535850849,5156.20947999729,5157.77637099362,5155.60627089847,5155.50132738375,5165.29742193185,5179.11492006728,5189.67872646933,5198.70903650598,5208.47643421791,5218.43753255024,5229.72951960394,5242.90733709222,5256.69116155218,5268.32549841653,5276.44841518513,5280.69415624263,5281.92444476916,5284.22100786977,5289.77397906537,5297.65789798883,5302.64365309041,5300.69954623952,5290.83164512081,5271.66594443384,5243.04351161141,5207.74883717639,5170.18632549415,5134.95921995163,5104.10280401064,5072.5700834129,5034.94778152109,4993.22355807219,4952.57179593319,4919.32386299599,4897.07368997751,4885.43627187497,4881.30921286972,4880.10149013049,4875.77728825933,4871.75638181778,4876.20974512616,4893.84621617842,4918.77212258858,4943.97760235692,4962.87211582494,4971.23753292821,4961.69975951889,4921.56167384689,4850.13872820999,4764.48086706065,4692.40747277574,4653.52483629463,4648.52395555397,4653.9344125862,4642.93649703436,4616.50552258245,4590.83074311683,4574.97624794215,4559.69138735908,4532.31301269941,4496.23011806133,4467.39545788537,4457.71812288993,4465.00525264943,4485.11235530894,4506.81261565642,4519.09924683471,4525.67674324347,4532.41110158462,4542.33039239981,4553.09533908776,4560.29803623057,4565.27506927974,4570.93223621014,4574.55996309862,4551.53933877137,4459.22474187062,4262.11468209159,3987.53039855409,3716.47059742801,3521.97503405917,3423.92316960269,3386.34049765428,3340.96214703765,3252.82381521012,3167.15074210297,3123.3650418923,3116.08409209087,3120.65292368878,3104.7688150146,3044.4737375636,2938.60829643121,2820.98192206279,2731.21308026798,2689.25086124919,2683.8649492341,2680.96811399105,2672.23790261423,2686.34052003246,2734.46793257766,2805.80944436288,2866.85457811623,2887.71127486578,2893.39374845858,2918.13244870517,2958.26253295472,2991.77788561708,2999.70206260174,2986.38386109208,2970.37820004576,2970.53143226857,2965.15085734669,2304.39236477439,1726.35725465055,1283.91966463937,986.344380145504,757.266882147272,596.477849158133,473.401351220959,364.310794390834,262.138497781113,189.243887933816,136.297920663943,98.1570851979717,70.7614701251206,51.0931221773762,36.9624878275993,26.79725323384,19.4726467514178,14.1849177842532,10.3596647438581,7.5861642205111,5.57053442715845,4.10232603825098,3.03036172886456,2.2385627422585,2,2,2,2,2,2,2,2,2,2,2,2,2,2,2,2,2,2,2,2,2,2,2,2,2,2,2,2,2,2,2,2,2,2,2,2,2,2
5184.82594694364,5212.44305980439,5239.19841154576,5253.0163437728,5251.52565469561,5238.64490689808,5217.44942735941,5196.77753164933,5182.98254775618,5175.53364528855,5168.50825793514,5154.99808864851,5140.07316245994,5131.52943024607,5133.05041488373,5145.06632795081,5158.77812328279,5166.70639804179,5166.57258127007,5161.40134694426,5162.90390766694,5179.42054723757,5202.01258655209,5222.43377644675,5234.67324547856,5239.49286092176,5240.31652873383,5243.47522289853,5252.80384577737,5269.44520821855,5288.63955182636,5304.45504806167,5314.25830495412,5317.53346898745,5318.61772063501,5320.45136483994,5322.6893894059,5321.07371304849,5313.52942270683,5300.41397517328,5280.53849545073,5254.10000570053,5220.27940344992,5182.61180620241,5146.2678447857,5112.06852278933,5073.96522299863,5029.84794787978,4983.19937196012,4939.34694632743,4906.12339927152,4885.46706437053,4873.96782531234,4871.86757875448,4874.3267082271,4876.34504349644,4881.85918508887,4897.7411585589,4918.89107800357,4936.4389195588,4944.2813888143,4938.25823236628,4919.99897632559,4889.08799994203,4839.63502723428,4772.66134654959,4703.60634772235,4654.27244861846,4638.92476668729,4651.04934267168,4665.0419922747,4657.90403500754,4633.34798198673,4605.59995073656,4583.53073153297,4565.71288730138,4542.28892405023,4511.44227776966,4486.1454965982,4481.102166885,4494.73356742964,4515.57959791756,4531.26425127687,4536.82659644785,4537.56232265205,4537.38775746292,4538.30919959021,4538.00155750165,4536.3263424682,4540.1865761037,4541.9881496291,4520.3691139329,4443.06577900518,4280.09667157908,4015.5137715306,3694.22624971712,3404.0199718073,3220.80109049907,3161.64801296909,3181.62349179905,3198.10635481266,3158.9874260033,3108.93128896684,3088.35006373741,3097.09130096935,3120.46148324762,3128.17295951426,3088.32352625424,2994.88560784553,2864.18250937829,2739.59276463519,2665.89619318594,2646.45688644295,2648.09568777615,2655.64791144126,2679.13309490458,2712.86341148298,2747.48110558524,2776.12474146213,2796.52705507205,2835.29333750023,2914.23215214569,2994.6268995342,3032.284478549,3019.18401833285,2974.97551753812,2934.58233787277,2925.56697853035,2942.38301270291,2647.39397565772,1968.94155088212,1512.8325245063,1161.50412074209,914.68338099304,725.936412207774,558.635718582037,423.566439312815,313.070846448602,223.03316229072,159.50550970422,114.419649196916,82.2916433923821,59.324525255926,42.8655297753442,31.0450172761029,22.5381804460497,16.4031362672994,11.9687839404628,8.75614986867843,6.42281538435412,4.72348587239588,3.48202954700575,2.57535236625681,2,2,2,2,2,2,2,2,2,2,2,2,2,2,2,2,2,2,2,2,2,2,2,2,2,2,2,2,2,2,2,2,2,2,2,2,2,2
5218.78832017811,5241.96175454003,5263.90084155166,5274.13530285792,5273.62546740089,5261.65948479216,5238.43444527005,5215.52873565474,5201.18098752831,5192.41545308989,5182.27741288272,5166.34950849011,5147.40883973244,5135.43364938935,5136.72915142424,5150.6424264877,5166.56113662846,5175.08291330917,5174.41020753521,5172.61822343549,5180.80968750511,5203.15925909664,5231.34998612331,5257.51082506583,5271.63846598081,5271.09976201356,5264.1879550821,5259.75504669609,5265.23260511495,5283.3454657344,5306.5565980858,5323.26421651519,5332.07918852417,5335.73683763385,5337.8226644282,5338.74026071571,5337.69613707695,5331.81041934606,5319.00108067404,5299.65081364845,5274.17145029375,5245.17640413002,5212.83300375186,5177.3263120246,5140.59026977119,5100.75388225541,5055.51737532529,5007.87738229249,4961.17863632727,4920.40208659686,4889.64373363534,4870.0404994589,4862.88449555281,4868.2274609748,4880.75955748853,4896.64150519853,4915.2653652842,4932.2771776765,4936.34865073602,4927.34334198012,4906.8852031817,4877.68604866257,4843.29218708756,4805.25516493505,4760.69781332756,4711.60067921925,4667.68850855255,4640.80042588869,4638.39991283567,4655.07131257718,4671.62399645907,4668.54544037311,4649.13255091648,4622.089870853,4598.28272852518,4581.56906111988,4565.83994671511,4541.3616997108,4519.4195109588,4513.90931167697,4523.39355005541,4537.73088461676,4544.73403625694,4542.63046458997,4534.27445049676,4521.25744005982,4505.66261238163,4485.20606714718,4461.59101705917,4439.75081233003,4410.0589310081,4348.54473820376,4225.33085647859,4026.86816174933,3755.93578606536,3457.41107495533,3209.81307999274,3073.26713749024,3052.92656113124,3098.92563914314,3138.95683121814,3127.70704547225,3094.68870868018,3077.65554158689,3094.1067120542,3132.09890009712,3158.77426841878,3140.61565264167,3069.56878276521,2951.78985688964,2811.96809861853,2708.96308214046,2667.1504859246,2663.27288696109,2677.89203781227,2705.48816290365,2730.03143635767,2740.46197419531,2740.05851993376,2751.2977200665,2808.22135864732,2922.3266401385,3026.49383935407,3053.75827349332,3008.02878940865,2932.12468720345,2873.9384650528,2861.09052791748,2892.66685736319,2935.51523698593,2320.0963483846,1781.43382996689,1402.63467410616,1113.1908492442,856.614674350215,649.49821851795,480.063900643701,360.093903904703,257.065954851717,184.12739640376,132.245822693835,95.1684830144,68.6188248349371,49.5765999810006,35.8966621865712,26.0513813507823,18.9518798195307,13.8214426389615,10.105521787642,7.40774359571157,5.44446587048927,4.01255500991081,2.96551664739791,2.19128728322908,2,2,2,2,2,2,2,2,2,2,2,2,2,2,2,2,2,2,2,2,2,2,2,2,2,2,2,2,2,2,2,2,2,2,2,2,2
5259.2978940719,5274.12759415101,5288.19568528791,5295.56786960998,5295.16202713166,5281.73310133904,5258.69352745165,5237.86175090134,5223.99327654869,5213.1356509222,5198.31118669267,5178.0676296127,5159.93741210995,5149.06020110231,5148.8344554218,5161.0313330702,5176.81474097458,5186.04942759703,5188.74123997945,5194.12376461321,5208.21599544365,5232.78101026883,5262.00819202473,5287.87114345727,5301.05157934166,5298.6437328025,5287.78615733901,5279.52026785349,5284.19794172348,5302.63649970516,5324.87660195023,5339.40194349043,5345.42527087583,5346.74215039009,5346.50548670024,5345.16309545234,5340.8883602844,5330.80581346201,5311.91170992498,5284.98563158612,5252.61631691607,5217.91542927285,5183.26964623026,5148.55945015157,5113.25097875944,5071.66587297022,5023.84277972671,4977.60673495089,4936.87135049177,4903.05965635609,4879.91798794225,4866.86454835734,4864.85170724251,4877.72117133706,4902.33506432591,4930.91418081838,4951.59653516774,4949.34059315257,4920.81562701395,4880.36815790109,4837.57168207359,4799.35549704501,4768.85571006181,4741.70498731094,4713.39828385656,4685.81651555613,4663.52113483907,4648.95761219307,4645.41220496437,4654.19521912158,4669.70088781162,4675.88193243837,4663.22047266726,4637.38546725005,4612.37485984098,4595.65685542151,4584.46354027557,4568.71694685357,4551.28333184511,4541.77262428278,4542.07938869079,4544.41500598193,4540.84956306701,4527.19818005835,4500.5118843718,4464.22865155481,4422.08756256381,4368.3518295217,4306.13754570288,4241.55091261472,4172.73107354786,4083.33820031904,3947.4167001049,3758.80459142473,3532.99862775246,3308.99595464603,3139.63937806945,3059.8016160446,3058.3614491307,3095.61546881466,3128.79782753275,3128.52599369175,3108.37242808716,3098.18934987463,3117.61946377927,3154.24273422301,3180.10872429118,3171.85224405431,3124.56842745154,3038.68889145068,2921.06953262084,2810.66616306797,2749.35535509543,2726.72739345724,2723.61320049551,2738.72745163372,2760.69279050581,2769.03339743656,2763.03600138474,2772.11379213774,2828.84861382178,2935.48438843917,3026.20548399227,3032.5004343716,2958.57469611954,2861.85607746586,2795.56347573913,2782.60806408211,2824.1120711946,2899.45405118229,2731.97965689841,2150.85441648644,1707.02041538041,1313.53702583621,995.942777652325,736.13161826476,552.169216132508,409.549544828148,294.085609532561,211.928985679572,152.478938080441,109.815246613437,79.20761519715,57.2387343827312,41.4495490381276,30.0823579279575,21.8828292490162,15.9558835550232,11.6622188606014,8.54458745370362,6.27537671042665,4.61929887614702,3.40702393283826,2.52740187670991,2,2,2,2,2,2,2,2,2,2,2,2,2,2,2,2,2,2,2,2,2,2,2,2,2,2,2,2,2,2,2,2,2,2,2,2,2
5298.44689114997,5306.34031558091,5315.76597955323,5320.65916031062,5317.15195094714,5300.65852130779,5279.75988953693,5263.16061692738,5250.92848668365,5236.0523423642,5213.73216618689,5188.61567555291,5172.50904276378,5170.26725333146,5173.88819538316,5182.13252443305,5187.88947741807,5192.56533830093,5199.53942163947,5214.51299753403,5236.03669024203,5258.98375777657,5285.01830241877,5309.52653374852,5322.11642215861,5318.3246832334,5305.51398074324,5296.46383189665,5302.16806642189,5322.80358495673,5344.01125557562,5355.55206096827,5358.80702088125,5356.88128199555,5350.55439964948,5342.729268713,5332.56594779431,5316.15548404465,5289.59389120153,5254.70050897461,5216.9809655328,5179.14305395258,5143.66479275149,5109.79221133613,5075.33356351366,5036.14047927264,4992.88466732297,4952.30448012556,4918.5269055907,4894.04506502058,4882.50963369041,4879.00148849366,4882.56533938024,4900.59195152215,4927.42717268391,4949.97529595854,4953.89260298546,4923.45206077392,4865.48903876981,4805.25688326509,4758.03205689802,4730.30307970807,4720.33505449818,4715.39163988973,4705.80810452936,4694.52610275959,4682.80708169361,4669.39677125003,4658.71762813858,4657.26523653084,4668.30110987109,4677.07478153587,4665.7591285378,4639.68540782446,4612.23705731513,4592.87136179699,4582.1783961525,4572.76092337238,4559.02815379767,4544.0425969072,4534.37768951453,4527.59128737255,4511.07822912508,4474.99296045386,4418.66789067965,4347.91555966174,4268.63777273491,4179.09452528125,4082.5131183451,3987.95565805059,3902.39515451422,3814.4645099523,3691.33413308307,3526.58358022657,3360.36951806574,3225.84464690554,3132.63178535298,3091.06624505247,3091.14125632317,3112.53782053312,3140.74274762956,3152.53851914996,3146.70094981469,3143.27242579909,3158.77022253931,3182.19153494681,3192.76118968186,3181.89893671474,3152.52845201541,3102.0628010979,3027.95363210444,2939.04133444879,2864.17166406,2813.15170097038,2775.31660027254,2769.88170042547,2793.58542321767,2814.64945479944,2820.04627558054,2831.50262979518,2870.12568631684,2935.14301571797,2983.87977236646,2966.70687973113,2883.76882707688,2787.6543402791,2723.20034517388,2710.73640208179,2753.66776962732,2840.70994211506,2936.78666898068,2617.59498176892,2014.18325125144,1527.18204227998,1128.78672690259,846.698152727064,627.401623076873,463.731634448122,342.758164592089,244.340343621986,175.658756325192,126.45891435865,91.2453215617436,65.9746770509682,47.8026690082421,34.7088460645436,25.2555655838482,18.4171302252557,13.4602502846299,9.85974659326359,7.23890115828258,5.32715899882725,3.93008184358099,2.91467296354343,2.15398192543224,2,2,2,2,2,2,2,2,2,2,2,2,2,2,2,2,2,2,2,2,2,2,2,2,2,2,2,2,2,2,2,2,2,2,2,2
5334.80566901395,5338.75692780133,5343.07499656924,5341.59594789208,5331.55732984515,5311.89533798199,5293.39993102125,5281.99009790742,5271.22971276459,5253.50935186529,5227.7024174337,5202.2646109239,5189.7605832553,5196.58256102805,5202.70324534596,5192.13998141972,5174.51620056604,5169.43340330593,5185.68037597319,5216.88935620852,5250.39974987311,5276.55286803555,5299.59625263428,5323.59487334685,5338.43076970734,5335.75356809934,5325.70114109491,5317.59553029067,5321.73654135155,5338.57153572093,5355.82753496698,5365.22196753177,5367.87323645685,5364.38318769253,5352.36048033908,5335.26094413273,5314.86177061365,5288.4402440677,5253.86796999725,5213.42148783614,5174.01703923287,5137.8924196623,5105.69226692101,5076.13670103885,5045.17795296157,5010.64163290554,4975.01223109759,4942.27417983387,4914.25786027993,4894.28204503558,4887.30971987723,4886.90585817731,4892.23053595367,4908.44629634426,4924.24553465669,4926.60575341164,4907.30377867182,4857.27401909039,4787.38441253558,4727.09150707008,4692.0869452416,4686.6264481885,4702.06843027619,4718.96834087016,4722.95881252995,4717.48043905253,4706.36855895844,4691.83376774853,4677.91404380875,4669.32031630356,4668.87259176254,4665.96616019524,4647.44262659479,4617.0855138936,4587.19046296645,4566.7490459033,4556.81915621579,4548.6306175395,4532.36797586226,4510.66206563558,4493.70319182781,4475.06725507829,4436.57199254255,4367.79582678657,4274.76428703055,4170.65395042833,4065.2083033667,3959.96953530637,3855.87129384687,3763.01006380366,3690.55840466652,3616.20882148906,3495.80331812821,3340.09484381738,3214.47195262358,3149.76851843082,3118.09708046802,3098.87028632289,3098.09766467053,3116.89678647562,3152.40059246387,3182.46459792122,3195.14630747335,3198.13173784897,3204.5666932809,3210.77417933126,3205.68449567921,3189.56309377891,3168.73287544473,3141.02978804025,3102.72651303955,3046.56921047248,2974.44784836154,2898.62186330042,2831.27558041848,2805.70063387052,2826.14780360271,2857.24448749572,2872.08998621409,2876.56408550376,2884.48844969792,2899.07813718179,2901.91475860154,2870.05978379022,2806.99350533041,2736.41196490087,2680.85934622675,2661.3637595972,2692.81452544662,2777.52284555901,2890.57940017506,2966.55170638597,2325.29284682754,1718.69471244065,1270.33956947499,938.946637737986,694.004036133236,512.959504656855,379.143981526851,280.236855840732,200.938061750378,145.054598333488,104.848868737837,75.9287527228439,55.0796506107854,40.0265445793032,29.1413259916362,21.2574719769582,15.5377905753865,11.3807651549958,8.35372439889414,6.14504215332397,4.52985011189598,3.34341627063591,2.48508311888594,2,2,2,2,2,2,2,2,2,2,2,2,2,2,2,2,2,2,2,2,2,2,2,2,2,2,2,2,2,2,2,2,2,2,2,2
5361.23137282288,5359.99017721315,5357.5472488935,5349.58548063038,5333.09623017658,5309.31755760286,5289.83325440872,5281.50095035343,5274.57399558414,5259.90181771909,5237.97121369778,5216.66934205722,5211.02371774037,5222.38750756007,5220.56542286627,5186.39582165105,5143.52433236856,5122.64288718634,5141.97133166957,5191.5916425677,5241.35329335121,5277.51604072327,5304.93418528326,5333.52979163159,5354.44361431436,5359.01800057935,5352.51294743753,5345.00700821172,5344.19369977426,5350.7835392133,5359.68947761989,5365.69685800584,5368.33608818952,5365.69118201157,5351.03539703714,5325.68150711781,5293.37061226585,5255.87522374461,5213.79544804586,5171.14207191383,5132.70207026372,5101.0096197533,5075.6944484946,5054.1152400066,5032.52207617583,5007.501226634,4980.71867173562,4955.49739949492,4929.94306272586,4905.72605328586,4889.50885631799,4876.11287476802,4870.75912737544,4876.99734587629,4879.32755263342,4864.18302497785,4830.95705402115,4779.71208251431,4718.04380976816,4671.0341215927,4653.21007422853,4666.42628471989,4697.92821990269,4727.17453242191,4740.79782559616,4738.27726037516,4727.82105699985,4713.69018299028,4698.77359462062,4682.76829411356,4667.14649314398,4646.5959209958,4614.96697018298,4577.43158231774,4546.25240726231,4527.41726354003,4515.11473160325,4500.67014634241,4475.5303496766,4444.32317134198,4415.33304652365,4374.09359445861,4303.18279090787,4201.4494587469,4084.51078753772,3970.04145997714,3867.32481608227,3776.10873466345,3694.70447888002,3630.1474965104,3580.6426929315,3504.85806356923,3370.72133220648,3210.80572334798,3098.35542744855,3060.95940420109,3067.75460451023,3076.48047459184,3082.54783402635,3103.28311393962,3145.47659003796,3194.67771422933,3228.25027073774,3242.13029282178,3241.14474692404,3232.18727176982,3216.87196477247,3198.84492120038,3181.09002164442,3163.05837371148,3143.21221077552,3111.22336382664,3055.70590025136,2981.36509785042,2905.62726616067,2860.43353732529,2860.83030792476,2883.02621061575,2890.2428270858,2876.33946544462,2854.9524975188,2837.98072913611,2819.59106332536,2787.55399776204,2747.92826900826,2704.87219463878,2659.79515097589,2629.42428151055,2645.28629114575,2724.59702590145,2846.91066387717,2955.96167261732,2582.81643018669,1909.03821532162,1411.02822431778,1042.93388323194,770.864156324903,569.769145542613,421.133707508799,311.272735525828,230.071150454759,166.088137961084,120.436808276404,87.3634550427691,63.4550971505012,46.1532369756307,33.6213976160335,24.5338978920622,17.9351733870407,13.1362758653372,9.64034095499913,7.0888490796248,5.2229654347904,3.85638484194523,2.86801658346422,2.11966091796295,2,2,2,2,2,2,2,2,2,2,2,2,2,2,2,2,2,2,2,2,2,2,2,2,2,2,2,2,2,2,2,2,2,2,2
5368.9565230725,5361.88500368015,5353.76959312574,5341.09025715992,5321.43053667898,5296.19845321263,5274.68956534956,5266.36349526413,5263.79642257472,5256.71625081591,5242.7595221457,5229.60200314165,5231.62882435942,5242.35832415493,5231.51183811955,5180.24558230239,5114.7520151169,5076.69397585034,5090.55547865916,5148.73716426877,5212.71518802314,5259.88632188046,5296.52952827672,5334.96542721884,5366.06116575057,5379.6568826006,5376.83926362686,5368.81970077131,5362.84047162315,5358.89867133257,5359.27414008376,5360.02207708169,5359.93263959352,5356.84551578331,5342.39643023328,5312.81239604944,5273.32708834415,5228.62681673623,5182.57682281757,5138.53681599763,5101.38397727477,5074.85996523968,5058.19480669272,5047.56845257507,5037.47253939749,5025.46379363963,5010.59550453814,4993.6981437944,4969.34370570604,4932.89982990754,4892.23345207597,4851.38027431595,4823.88735470908,4815.11461330218,4810.38439579882,4793.01607989861,4764.89925405529,4729.33321311511,4686.15688795954,4654.03873974654,4643.89159433396,4658.26320520745,4689.71331216376,4724.35753333947,4749.60861828443,4757.06977386402,4749.26344072236,4733.80052571815,4715.40225156078,4692.5564539099,4663.89857568445,4628.25783616176,4587.13531289127,4547.17457144143,4516.19054945649,4493.89628382193,4469.5841748923,4436.72227705475,4394.71977958114,4348.92160252557,4297.43288894391,4226.62143351567,4129.80650470057,4014.61864229215,3900.16508528077,3803.43504971885,3728.2607911369,3669.38892847305,3621.25118107397,3588.32811756589,3552.6275975,3464.48098689886,3314.05770867038,3144.5102618497,3025.61995396087,2985.53828663521,3002.90558369347,3027.75936959148,3039.89772848788,3066.27446382723,3118.05174099406,3178.68742590952,3226.66941691461,3252.2602602417,3254.41794389771,3241.72285472626,3225.94176375281,3209.27762068452,3192.37692794318,3176.62122019946,3161.52151585033,3140.09669922002,3101.69037060262,3050.03955990575,2991.94146286109,2940.13233918252,2908.76308797933,2894.85791370941,2872.72318465904,2835.33989029561,2801.55271486174,2781.29887725551,2763.73889422145,2742.44992637071,2718.4427156982,2685.32856770179,2640.47303200983,2607.23253684616,2617.77512437176,2696.12249981747,2823.72684461849,2947.2405110234,2905.66600346414,2147.66603800511,1587.40513776456,1173.29925160521,867.221013886197,640.989311309093,473.774614347687,350.181177582994,258.829534297624,191.308773885563,138.4101212719,100.56863672082,73.1024483199208,53.2053429408133,38.7762722032593,28.3039289274739,20.6946738048132,15.1583017870711,11.1239065411622,8.178993111173,6.0254591837549,4.44756177425404,3.28489317873984,2.44626130281397,2,2,2,2,2,2,2,2,2,2,2,2,2,2,2,2,2,2,2,2,2,2,2,2,2,2,2,2,2,2,2,2,2,2,2
5358.04819552598,5344.76572701865,5333.14545587857,5319.67316969301,5301.96267081664,5278.59240176774,5255.57101625535,5248.23192907153,5251.4630568328,5252.55785545176,5246.61021853104,5240.31140533748,5246.68606910226,5255.79130204438,5241.43472751035,5184.56461008173,5107.96300282023,5058.09509695322,5062.70983110867,5116.10078895836,5181.85346606359,5233.22450416731,5275.46963792748,5320.43967703324,5361.5434062849,5383.83481676024,5387.64889582058,5382.38910910712,5375.01751143809,5366.72449118002,5360.27434397348,5354.0039571795,5348.59535837869,5341.63951506569,5325.84515935724,5296.25715660203,5257.41480339529,5212.2650775367,5165.0394307075,5120.73504442323,5085.22107075882,5063.29942974014,5055.17233120076,5055.52627426676,5057.83240863651,5059.71411426091,5059.88887808446,5052.99517272983,5026.28888024274,4969.68528037069,4897.83703312919,4828.02088599109,4779.69113931632,4760.4376019659,4757.77299145071,4753.3548624389,4741.01389803119,4723.55196892165,4699.01905910912,4675.47598951796,4658.24489912329,4657.25213474392,4679.17234926802,4718.53034425536,4757.53447489263,4775.73572549398,4769.45236635409,4750.21601983717,4726.34462443219,4698.19830249388,4663.60373571095,4623.08242545109,4580.93852337616,4544.57495384159,4514.05623995823,4480.53606566105,4432.43500780814,4368.54500333718,4298.76425509526,4228.84903744659,4153.85771373706,4066.06052983501,3965.20776060948,3862.26330296338,3772.75664336173,3707.16035860869,3663.72388436849,3632.02664070277,3605.53511824462,3587.67673289355,3556.62366998249,3460.24821486006,3298.54704012063,3127.07228434747,3006.55270326066,2958.75189596648,2965.07486019618,2975.77782720603,2977.38105046316,3007.47835544553,3074.00340068805,3145.66481634684,3203.96716942004,3241.60639203649,3255.05128565485,3249.38889073551,3235.79465189693,3220.25525858097,3203.67635720299,3187.77499561835,3171.89572380312,3152.11834038615,3121.0173402978,3086.72296040634,3050.84706266116,3008.07355621211,2954.1468216384,2894.39572401457,2835.55981630318,2785.86214071479,2759.47318825644,2752.32746000633,2742.42755596137,2726.35684379985,2705.88715099656,2673.10431323868,2629.12806138581,2598.77198370101,2616.68919362847,2700.55516788842,2829.45663659951,2952.22790403306,3016.91771783077,2423.48167991659,1791.26893938383,1323.98120948785,978.594623394127,723.308909919039,534.619505076476,395.153460068196,292.069893943515,215.877718267888,159.561780327397,115.645376560837,84.1604410366015,61.2767476001105,44.6765133028773,32.6214218514769,23.8583998107624,17.4802966844932,12.830672047323,9.4349419955186,6.95003820959099,5.12780120118899,3.78967979638762,2.83303030785446,2.09807166092995,2,2,2,2,2,2,2,2,2,2,2,2,2,2,2,2,2,2,2,2,2,2,2,2,2,2,2,2,2,2,2,2,2,2
5336.75729901917,5317.27476453181,5304.22132983162,5294.62167998226,5282.36180474687,5263.63200662683,5244.4313491987,5238.11636812058,5246.72563341869,5255.16546588298,5254.93455202253,5250.4209750745,5253.43086022489,5261.46361751375,5252.18115542807,5206.38907505312,5136.33913846556,5084.65044893989,5080.42993230528,5118.67903874358,5168.82017613342,5211.64895464058,5251.8396052381,5294.46283398692,5338.95951642633,5370.41104288182,5384.28052737271,5387.17582650881,5383.81117748032,5375.75663257421,5363.69622579504,5350.80902839363,5338.72755354139,5326.23453392811,5307.83520904425,5280.20663008926,5244.88763441309,5201.6425350184,5155.11942217048,5113.61830036292,5083.65253477604,5067.38093180483,5065.15075878369,5074.76428388662,5089.28506842455,5104.82963666708,5116.35489579385,5112.05991816517,5077.86335952187,5004.3954962429,4910.60525792339,4824.77243451458,4769.27118744889,4751.0794091726,4756.71751002504,4763.81389277098,4761.5647278394,4751.87628539624,4735.53692474382,4711.13209595491,4682.78773734295,4667.39816643159,4680.61348081226,4720.09362656927,4765.07760197299,4789.39657214776,4784.86621483088,4761.53809205823,4732.99321269093,4702.70379926416,4669.12158544879,4631.20558020835,4593.72755433932,4561.85356765554,4529.32643343007,4477.47061133897,4394.38168984417,4291.30959904499,4190.03179266983,4100.13689095081,4017.86971995106,3935.51550314413,3852.54587122163,3776.97041751028,3716.94901397143,3675.61676491706,3649.03262330166,3626.28104003468,3601.91595643421,3580.01883735712,3547.8320776016,3453.32280214135,3300.36900041152,3150.59474190153,3046.69411656863,2996.47632968433,2976.68149917727,2950.26928068514,2930.27104146594,2960.08161590936,3035.75734352372,3118.26886886687,3185.35410316824,3232.76385170589,3255.32161570168,3255.86321306387,3246.031373765,3232.30078719174,3217.15973403747,3201.90504592075,3185.75430835673,3164.90242705493,3133.71632578435,3100.8139147829,3071.78273774664,3033.83464913493,2968.53675905397,2882.68621079717,2803.26641345219,2756.49875536124,2749.44206160697,2754.40017016076,2746.78282855519,2725.39319180629,2699.76126421917,2671.06560454009,2640.85612038667,2624.69680642133,2651.0270163937,2737.62616195292,2861.20126022425,2970.89045744598,3033.27817476492,2737.39013733466,2023.28753136799,1495.47221406252,1105.34780995015,816.995123934349,603.865089787021,446.334422300407,329.898918133226,243.838062141515,180.227990836742,133.211938514011,96.6597622933341,70.4390418202236,51.3776431089918,37.5340733122916,27.470957948878,20.1433525312287,14.7969922295267,10.8882121137489,8.02479182144157,5.92326912602854,4.38737079655947,3.24644398094895,2.4374398585684,2,2,2,2,2,2,2,2,2,2,2,2,2,2,2,2,2,2,2,2,2,2,2,2,2,2,2,2,2,2,2,2,2,2
5317.43623657911,5293.88440519045,5281.2898110408,5274.6395754747,5269.08755738366,5258.00336430064,5246.70102906961,5245.59602804445,5257.25478938429,5269.12561337211,5270.77860760415,5264.37544669209,5259.66825505362,5264.2095801819,5264.13934862949,5239.32651164721,5190.4785257225,5146.18831533048,5134.01880116467,5150.79495521102,5178.12698595224,5209.07684890617,5240.70142069813,5274.02297377548,5313.12809383504,5349.9146698908,5374.58668858477,5387.64526825907,5389.60995160826,5382.7316543219,5367.83668908292,5348.72330795905,5327.7970376638,5307.43844725704,5285.34166946521,5261.09594122951,5231.72526443347,5192.66187336106,5149.36519885928,5111.61665482756,5085.90903792831,5076.04322100832,5081.38781040141,5100.56540279775,5126.83677783336,5147.4469353013,5153.45146112015,5137.31516059744,5092.4409900494,5015.990212474,4924.03825214539,4845.10255809985,4799.2599818725,4789.96972557417,4800.9975397017,4809.73936316642,4805.74904962162,4790.68794059887,4770.5133542203,4744.73278236936,4716.2734446223,4697.24249439311,4703.09017685215,4734.30555224152,4773.61048123566,4796.90436916792,4792.68200557766,4767.08130418992,4734.13118088595,4699.49885825198,4659.40817463162,4617.73008623775,4581.99809303952,4550.72434735923,4509.22699981682,4435.38098011913,4322.36954029769,4192.40435821362,4073.65838144899,3981.0859645928,3911.11566379771,3852.33466614356,3799.37385934551,3753.24249639092,3714.61570809306,3680.87845566499,3649.59336720231,3616.51445002229,3580.96816317144,3549.44422808848,3512.37123796951,3432.71511017447,3311.92959909949,3195.81188505174,3117.65776337059,3070.1138003942,3023.62943374145,2967.77226604235,2936.41866946014,2960.55823246946,3031.48312599533,3114.07663630816,3183.86035541537,3232.50168975915,3257.05126151969,3261.32506796484,3255.0817149485,3245.53728203603,3234.4065738225,3222.33177983818,3207.28060109902,3184.98832029076,3150.68905545649,3112.33335943906,3079.25347054229,3035.9075631291,2965.38900107091,2877.53008039439,2800.24358397355,2764.44734623023,2770.09683016696,2778.59083769493,2763.78585021798,2731.72774904036,2704.88739354353,2692.22924485961,2688.7585862594,2693.49947372975,2725.79755004075,2801.99693927662,2906.07272593309,2994.68558182291,3044.66375102926,3031.09878738492,2279.54322591045,1684.87878104267,1245.34377522468,920.470028417521,680.346115571613,502.863477255678,371.680929706218,274.720163558622,203.053712387208,150.083008702373,110.930853990134,80.6937065512868,58.8883976681642,43.0891915709514,31.5965009708768,23.2111467605912,17.0780783790403,12.583252407163,9.28323678545911,6.85655019380026,5.0668530343452,3.77677566805262,2.87207996012249,2.15621168673273,2,2,2,2,2,2,2,2,2,2,2,2,2,2,2,2,2,2,2,2,2,2,2,2,2,2,2,2,2,2,2,2,2
5311.63932234044,5285.83600357246,5270.64983779384,5264.46747094781,5262.85046581987,5259.55769873111,5256.91855655296,5263.19188327477,5280.46506730993,5295.72593450828,5298.36094180183,5289.06409657383,5276.83071895618,5273.28487060612,5276.4432341411,5268.95414381248,5242.41804767112,5210.51580114432,5192.74216019267,5191.36660468071,5205.49946653183,5226.2275692894,5247.481536519,5271.35637822849,5303.25272179719,5339.82095482309,5370.45856206905,5389.06662257408,5394.68718101716,5387.86800203639,5370.78067048471,5343.61720823131,5312.03099263968,5281.80163302166,5255.6940272529,5235.26287337942,5212.57741727022,5181.11773774687,5144.10986004678,5109.95345842521,5088.04942764232,5084.40220470604,5099.03517527378,5124.7278754409,5151.33842813737,5163.46075698449,5151.11642855027,5116.00534000645,5061.88867864988,4993.93618909878,4924.01246784776,4871.13463478402,4847.57444040559,4849.60807637549,4860.49994369545,4861.96549380468,4847.43727785462,4822.72771670367,4798.14100522598,4778.08658069204,4759.81923876942,4747.08583666895,4749.01894502152,4766.21886637294,4788.24977732432,4800.30894649451,4788.89153898354,4754.10272286565,4703.99165746025,4639.27121654574,4569.81733129898,4512.64523135351,4472.84706593938,4442.21224840284,4398.04419606327,4320.13219471003,4205.01336555772,4077.09726878859,3965.53203502794,3886.4679830173,3838.86288375625,3809.23914627558,3785.21693580403,3759.75925177968,3728.50140896884,3687.85904558338,3638.53164297178,3588.49945999526,3544.98343687386,3513.18816667704,3472.25663531376,3399.0797039286,3305.36903410774,3223.21637625031,3173.05550339821,3137.16384085813,3089.17055373418,3027.83442937448,2995.07936277929,3011.0153725548,3066.5934864722,3136.96339764764,3200.81644203468,3243.84595104415,3263.33814768908,3267.21604698515,3264.02031076977,3258.70426498082,3253.50799901478,3246.0747858859,3232.63398101977,3209.38657403894,3172.27001519567,3129.95639589991,3091.60600655572,3038.29683812305,2965.03936025648,2886.53627087642,2825.08257633468,2799.98278476948,2805.95224980709,2807.19442777813,2781.69827602566,2747.41240769692,2735.94658077509,2750.6451339361,2773.68528764056,2794.44528758302,2822.17375475363,2875.0204441398,2948.66749068843,3013.70626692694,3050.39286014725,3047.40134897722,2574.62031190044,1902.97891792012,1406.54777319826,1039.62034352657,768.413325215136,567.956298778552,419.792768731489,310.280920656096,229.337647443534,169.510210693659,125.290069308948,91.662457887899,67.2579993582067,49.4321445739376,36.3781981994853,26.7999280209273,19.762696286511,14.5862205093301,10.7738481608675,7.96237850515048,5.9107650413438,4.45666070126796,3.34441927319593,2.54274082642251,2.00043753833561,2,2,2,2,2,2,2,2,2,2,2,2,2,2,2,2,2,2,2,2,2,2,2,2,2,2,2,2,2,2,2,2
5320.53863466204,5292.54154489866,5273.55952794137,5264.95243854745,5264.74353726229,5267.45575019026,5272.59802343744,5285.40213819698,5306.38749748737,5325.34109007365,5330.98470090378,5322.5776934908,5308.28974496088,5296.90420573376,5292.30681401377,5288.96117188439,5277.80777279707,5257.86789744366,5241.80058296766,5235.06207113987,5239.49866706377,5251.16677426368,5264.6783670289,5282.18782329748,5309.94068693206,5345.33030481103,5377.48266926037,5396.17238448857,5398.72781471798,5388.20485025503,5366.9293724096,5333.78946696675,5293.01139457643,5254.66907829672,5225.2196511728,5205.91847317456,5187.83862968805,5164.86688482916,5136.02578263085,5110.69321089633,5095.89765565196,5098.2474006604,5115.51592216383,5134.4659664741,5144.91314967713,5139.2839460924,5110.46637341521,5061.98487476557,5007.23456519207,4955.37890471129,4915.90070353157,4894.90851152607,4892.36576141718,4900.44527765488,4906.44989087793,4899.16799771809,4877.80970761617,4850.2130756531,4826.62823988184,4813.60386460766,4808.47602897399,4807.12227505041,4806.3548999371,4805.0572606892,4799.81310175942,4779.96380225464,4734.15951777338,4659.34156827873,4559.41057347479,4447.72932526602,4346.98809897174,4278.68814219661,4244.88520310323,4230.76676749206,4208.86761962289,4156.9007742913,4074.54096515326,3980.9020610432,3898.25504269285,3839.9485618615,3810.55313471232,3799.35327083982,3788.67067780166,3768.03813630094,3732.03591252837,3680.64800744192,3618.66046778833,3560.09537444793,3517.03282218077,3486.30039907584,3440.00490480427,3363.7437691481,3279.11308655701,3217.38607102488,3193.8714816979,3184.86442854814,3160.02921188203,3111.57563161536,3076.83672630669,3083.01135838106,3120.65681734437,3175.18168914974,3227.37500279729,3260.04706270071,3272.27689287944,3272.73670952595,3271.81601296769,3270.84232666489,3271.46459510156,3269.01946638109,3257.23189290284,3234.44001855686,3197.60066550977,3155.40556119999,3111.86823712847,3050.17544223968,2975.77539010469,2904.99441642284,2858.56247130262,2845.07875257949,2851.94293489723,2841.30098754994,2806.66243476231,2786.58652922515,2806.71330034655,2846.26073067307,2880.04916254516,2896.56435534047,2906.42770809549,2931.96478391177,2977.85031118718,3023.18829981229,3049.76993790384,3054.54153324896,2887.42303261423,2134.18174884815,1577.43799958693,1165.93175298857,861.775070716812,636.963759332681,470.799025193605,347.98173722066,257.20383335599,190.175192208372,141.162220142071,104.506694340794,77.1601833558735,56.988672601694,42.0844168946504,31.0901184846537,22.9810499949723,16.9980044776748,12.5900317513312,9.33593843829032,6.99498832365558,5.2461874172278,3.95295303345217,3.07504718881731,2.31327437729148,2,2,2,2,2,2,2,2,2,2,2,2,2,2,2,2,2,2,2,2,2,2,2,2,2,2,2,2,2,2,2,2
5335.10293085755,5304.65146779594,5283.93913670107,5276.68105590807,5279.47446078648,5287.29745503128,5297.34301707376,5313.16877097567,5334.42554998266,5353.62940872638,5362.67141030238,5358.84190784687,5346.49433374152,5330.47741308488,5317.62644917936,5311.89012435419,5309.89771689856,5301.74069047853,5288.22582979381,5275.93034870724,5270.57995406764,5274.42382892019,5283.53012333201,5297.84607907258,5322.22920424514,5353.93407670519,5381.98881768231,5396.07429077288,5393.47534569659,5378.07891739838,5354.77660320875,5320.23952587933,5276.15754067721,5233.93022506406,5203.15619325407,5184.31985570554,5170.6673340782,5156.37204657611,5135.452022661,5116.3394115681,5104.91376913523,5106.01507429412,5114.82529861884,5118.74135631326,5108.12004814636,5083.92185577053,5048.42557327238,5000.54334966372,4957.20656652397,4926.72157032506,4913.44472082988,4914.29938674848,4921.33438468655,4927.19726851481,4928.54852638986,4920.50077801703,4902.01306079762,4879.03721226812,4857.76636139019,4850.18584261961,4854.69681441811,4857.92012897301,4849.42199946962,4820.23099000256,4761.23922261529,4668.25451687654,4545.77403925474,4407.12771798909,4263.9508929009,4132.09380256877,4032.43403021475,3983.35397307455,3980.43736186586,4003.37462102855,4022.56105907378,4015.4208393021,3983.20986583206,3936.68909821165,3887.55332123533,3846.74215138067,3821.93516271001,3809.88356254311,3795.47601948971,3768.15123948103,3725.14943071093,3672.19826603677,3610.02853328059,3551.06671794436,3508.13317187689,3473.29204365696,3424.72406055484,3350.80293374856,3270.94129334749,3217.91312745185,3207.66955159871,3220.47103464897,3214.22395926457,3177.27088074145,3143.51159471952,3137.58417104467,3163.32239774343,3207.9393089647,3249.15994558614,3272.6638341008,3278.52095755013,3277.26766210561,3278.61658426926,3282.65192771955,3286.97537568424,3288.03428935171,3278.93002991538,3258.54306273782,3225.64793495585,3186.87954624085,3141.10819728829,3073.32073552699,2996.04589452239,2930.69147614197,2895.78593271833,2894.0808892533,2904.08390921661,2889.81430920009,2860.5395411399,2864.31704515872,2905.36232614118,2953.47073927785,2979.13145010973,2974.33954259384,2959.58544220267,2964.25114849769,2992.2096525096,3024.08183055219,3044.36333195695,3054.57821310043,3029.20312083377,2410.82018178512,1781.91056914552,1317.06433371624,973.48233361635,719.530420499039,532.162258268955,393.337321329226,291.621573860579,216.485228805617,160.27477934559,120.42502269485,89.5131545771203,66.171081219188,48.9775280736661,36.3582367996594,26.9634189975985,20.0336214799836,14.867332271125,11.0959172929701,8.3192314195418,6.22730142897279,4.78629185347949,3.59645638367325,2.78205287369081,2.13584346041067,2,2,2,2,2,2,2,2,2,2,2,2,2,2,2,2,2,2,2,2,2,2,2,2,2,2,2,2,2,2,2
5346.03680689563,5317.83005166699,5298.3660184063,5294.14171322302,5301.5012842403,5314.5951823616,5327.85719259416,5343.96962642134,5361.9053778159,5378.1487413287,5389.2873304071,5390.93270897171,5383.01603386684,5367.78054969035,5352.18398266859,5344.36230892098,5345.46707624713,5344.99656036272,5335.41760973734,5320.41061795893,5308.01908245341,5302.78396244945,5305.25018005667,5315.7768665415,5334.68407235223,5357.63703932518,5376.45751191317,5383.93640598746,5377.66422374291,5361.28529272766,5339.84599501349,5310.06484475555,5270.97204242935,5230.69359835558,5200.42650456611,5184.49430207952,5177.79578258698,5172.01476940225,5155.16606963364,5133.92342940316,5113.20787790038,5099.01187436574,5090.40930385938,5079.61564269643,5056.3528688488,5023.34162834253,4990.74403349319,4956.46288782733,4931.54846293167,4919.32691738558,4917.8894056878,4921.23248475516,4924.35960575083,4926.22364015206,4928.12119147712,4926.29631505246,4919.88535590953,4907.67524966682,4891.60173167589,4883.78249929015,4885.15422328603,4874.091198381,4829.78661350181,4739.90103965332,4594.64129914081,4409.98190508029,4216.81223281572,4042.85747306033,3901.46697494948,3802.42775489787,3752.6257800624,3757.60173957204,3804.27379404781,3868.05890757734,3922.10158850946,3950.67706863945,3956.48107375085,3940.79281588059,3909.44110127623,3874.65910790177,3845.17278927393,3822.87009367817,3800.3683688589,3768.21967628029,3726.49992987447,3677.61009592111,3619.90753149709,3563.34080433918,3518.44148620476,3480.04895893849,3433.7774604138,3369.261604876,3300.86034555959,3252.30542824046,3239.51613113727,3245.13001694934,3233.14605414681,3196.17525598561,3161.60214414953,3156.76945074499,3183.71242839648,3226.76892766002,3262.79005167842,3281.37080240665,3284.90528452471,3284.91358417777,3287.96668869688,3293.97057771441,3299.87127584189,3301.90862889429,3296.58045508589,3280.72495129722,3254.32752238201,3221.1673952593,3173.81280989937,3103.12460001852,3023.10787293975,2960.89604950741,2939.41581303305,2953.07090667968,2964.04716870852,2943.82257528889,2928.7560196616,2947.50482988048,2992.26557443232,3030.60376381532,3036.28327863042,3009.58562810951,2978.43844665452,2974.07059279324,2994.9532458445,3020.10053204578,3038.50607987276,3050.17680501061,3045.15062059013,2731.86430746482,2019.20405334356,1492.47898551723,1103.29618631734,816.019928618122,603.145164630784,447.1908925468,332.034572713605,245.833510381476,184.714969354847,137.331818385726,104.169111981632,77.3514719319733,57.7160676638949,42.9647783052117,32.0561634756092,23.8441535838645,17.7676281956657,13.3269737597287,9.93204482029832,7.55453571469861,5.66685183840533,4.33143449195948,3.31642610242855,2.53628667903521,2.0005407475574,2,2,2,2,2,2,2,2,2,2,2,2,2,2,2,2,2,2,2,2,2,2,2,2,2,2,2,2,2,2
5351.69991706078,5330.98252851857,5316.23779808794,5314.88462549243,5325.6864877222,5341.35616663323,5356.54154105287,5371.34310620637,5385.56234988992,5398.2226080924,5409.58695831146,5416.58156028303,5415.42403022868,5406.98888766584,5394.99281498226,5388.50699136833,5391.17909054039,5395.90699314318,5393.94677463698,5382.2827780005,5365.73881679591,5350.65762207597,5342.36167076461,5342.72223033612,5350.28703993928,5361.09146964169,5369.69799090831,5370.58565340619,5362.24710701987,5347.47054457535,5330.93017037854,5309.367578358,5280.46553016944,5247.73500877998,5223.00006162274,5211.98915576413,5212.71538041502,5213.03562596294,5190.26475236266,5153.53352996918,5112.85947335484,5077.81038649744,5053.12943886709,5033.97176009174,5009.18525086886,4981.03489003095,4959.53201503119,4942.73085016063,4931.4698944689,4924.49160165707,4918.34533626645,4912.53299816258,4907.97617250942,4906.91562037091,4911.63591571294,4920.84777957142,4932.46836383913,4931.48650737432,4915.34981011071,4895.43301197589,4864.85856907767,4797.00398809179,4680.09648367298,4509.09147264963,4287.74989023128,4054.06524399053,3849.55259797402,3701.98493833389,3619.77294542995,3601.18726506055,3630.53264512138,3696.75951134468,3782.62293775767,3863.53269973983,3920.94411799253,3954.24510788078,3966.48836461848,3952.93447099013,3918.50899154969,3878.52532986698,3845.57260769791,3821.11007529123,3798.65549819778,3768.18656640887,3729.85501588162,3686.663592801,3635.76435145885,3583.56023384914,3539.97726498709,3503.8652360621,3466.78016675872,3417.29102484396,3361.55953972956,3318.95846543011,3297.2544316236,3281.52906394737,3250.8703779962,3207.44135546132,3172.35616219355,3167.42300765915,3195.63058098903,3240.10923967507,3276.3776774922,3292.13135092353,3295.27687203609,3296.71031137347,3300.28772811679,3304.73208691024,3309.57481694261,3311.10853331086,3308.01862090314,3297.64579699074,3279.72251514072,3254.1829475243,3207.66114872825,3136.629117977,3056.73292032313,3001.34324089468,2996.34013159533,3022.10841367164,3030.63589313179,3003.77740729557,2983.85102872488,2997.28178627345,3033.27450196534,3053.09336709259,3037.72202767648,2998.22292432957,2967.87377512043,2970.72230758792,2993.37539919053,3016.59720054244,3033.33034245972,3042.9239855432,3045.48909644956,3018.68793990158,2288.5723490209,1691.79812198701,1251.28900502643,924.86578632388,685.757284772123,509.294032907062,377.097467361149,283.397982979153,210.792856590661,159.807895759848,122.344059096573,91.8186342517944,68.7006168543157,51.5205619768051,38.4638942471918,28.6790360158256,21.5436064116822,16.0164390835699,12.079680338359,9.04256339686743,6.84292395472993,5.21337505644077,3.94623151658653,3.07581861479574,2.3080316145092,2,2,2,2,2,2,2,2,2,2,2,2,2,2,2,2,2,2,2,2,2,2,2,2,2,2,2,2,2,2
5357.28980854285,5346.24911606178,5338.35684992875,5339.95518423188,5350.89980873553,5364.97392009078,5378.84919172806,5391.12084420991,5402.65057914581,5412.11261132677,5421.88237455317,5432.41751601472,5440.8139977234,5443.91903087976,5440.80306502282,5438.74454490077,5444.57019732688,5455.12691026136,5461.73637389257,5456.26642229326,5438.29185077526,5414.89763166985,5393.72873794506,5379.90685794468,5375.31498484733,5378.29027987289,5381.23778287264,5376.23675227595,5363.9777110314,5347.37327911176,5331.44690908508,5316.1195843324,5297.62759515883,5278.11694485028,5263.85158274763,5260.83173492049,5264.61059281062,5254.8477067182,5214.59595184257,5155.0197680697,5095.52571142159,5046.60071903746,5015.83072229524,4997.52432305885,4979.00699241639,4962.62762012892,4953.61030848358,4947.26226637083,4939.6472992209,4928.62338127741,4914.8600988895,4900.11775583076,4888.53837676673,4886.86061899763,4899.11873770907,4923.53579663313,4947.86994059023,4945.8798715153,4914.29853348034,4856.06009471419,4755.09098519168,4601.06323075044,4405.04963903731,4175.51113701071,3932.42161645865,3724.46067300455,3583.79570949893,3521.90373568606,3536.11611874994,3605.01034890178,3695.96445166701,3790.43855828199,3875.3150555843,3933.58058142513,3961.01156858264,3972.10092789729,3965.00706518451,3933.29770452704,3886.12122950628,3842.86776468987,3815.71826382199,3799.1114576979,3782.36705652055,3755.94640606047,3722.69209757108,3685.53105954161,3643.83316117382,3600.65291854965,3562.50663835125,3534.4073778455,3503.54832210786,3465.47843257783,3422.51778990754,3389.1785853378,3365.71329245179,3337.26725275832,3293.97113364188,3245.5833535661,3212.55103090917,3205.85945658559,3226.69197933575,3263.92316199643,3295.19236179278,3307.5576332568,3309.30612428516,3310.42525480412,3312.51097996452,3314.55313199483,3316.29108509914,3316.40408767739,3314.08306068226,3307.95167796557,3297.68502480835,3280.90487905275,3240.81379767788,3174.69664229561,3102.10770058033,3061.40065234783,3069.26456631518,3091.30140701137,3082.05705850305,3036.76752631342,3001.89771391387,2999.29975633932,3020.18518467662,3028.21884557199,2999.90607086632,2959.45033872074,2942.4885954518,2961.74595991621,2990.26448029046,3011.7093818976,3025.82360349891,3032.78782284279,3035.88503482595,3031.37457701115,2594.20899034588,1918.73276520526,1418.1937829778,1051.59356699271,781.204077486399,578.467582369519,434.875016694401,323.66025853887,245.261552423757,187.702500165742,140.895126700646,110.089814806443,83.0422521031009,62.3170370688052,46.5863411246906,35.0903630434264,26.071221803605,19.5362691117343,14.5960552762601,10.956780132292,8.29262176827222,6.22614841515083,4.78662107379846,3.58501855132628,2.75627284393215,2.09351069448709,2,2,2,2,2,2,2,2,2,2,2,2,2,2,2,2,2,2,2,2,2,2,2,2,2,2,2,2,2
