2667.04870802631,2662.89613871479,2658.12264594461,2652.94471644251,2646.35468005889,2640.62994558633,2626.2545292842,2618.19783464014,2609.70130241128,2599.98505010472,2595.08744662595,2598.27207084301,2596.52500758168,2584.97316435505,2573.82265380951,2567.01801685938,2563.22212554487,2560.19957259721,2574.44146257505,2584.57175278127,2580.0805805339,2574.21318061939,2571.65781179235,2559.50979866951,2561.44474761083,2523.85019469326,2064.96834111267,1787.5435650083,1747.49097123851,1834.98853634706,1877.59678750085,1882.48716620472,1874.56238281293,1855.10481877114,1827.93100435655,1806.48715418923,1795.80892675288,1787.27324958072,1826.41632461126,1911.06544631328,1901.36418043741,1828.06167758756,1765.44685046628,1697.0689015678,1622.1634861004,1487.1787762588,1396.9844403665,1350.66413785751,1143.06069605876,1035.11750036683,976.165501111929,987.952831447795,1151.48666731398,942.125454328346,770.829917177738,630.679022527365,565.992198793591,498.975919704741,473.322536775479,388.923069727356,321.275415319522,272.241798361397,291.033677340401,336.315028158213,275.166840365136,225.136505753293,184.202594913056,150.71121322761,136.078822669648,131.15853085097,122.355667772758,112.90073102911,111.685174978593,105.381888194872,102.945026976695,100.256382702342,95.4787240331029,92.0881834979149,85.5305014843458,84.8075589169365,79.7156288465036,77.5134593562288,73.4848450204958,65.1091052019843,60.9877874077012,57.5678837122818,51.8937150181307,51.634375225689,47.9650384873129,39.2441223987106,38.865248757574,31.7988390029672,26.0172309678867,21.2868253373619,17.4164926853042,14.2498568429911,11.6589729118988,9.53915882985476,7.80476556812623,7.81984299094009,6.97275763895293,5.70498352277967,5.27047453864784,4.56767675071232,4,4,4,4,4,4,4,4,4,4,4,4,4,4,4,4,4,4,4,4,4,4,4,4,4,4,4,4,4,4,4,4,4,4,4,4,4,4,4,4,4,4,4,4,4,4,4,4,4,4,4,4,4,4,4,4,4,4,4,4,4,4,4,4,4,4,4,4,4,4
2665.42361053998,2661.69910791067,2657.21396347548,2651.19716754392,2645.96606076244,2643.06202440194,2624.97606031358,2615.56470942683,2607.41428934784,2598.84860516181,2592.57162047424,2594.87664567793,2592.94671187855,2582.01588025286,2571.73010847114,2562.68653370725,2560.68848458921,2559.29776188129,2568.69796177824,2578.90216890745,2576.58670726888,2572,2568.38741210141,2559.99711217355,2550.28889848362,2516.65140542948,2059.07842262412,1743.53900940865,1709.31508031165,1817.65016777342,1862.09066870949,1871.84739962335,1865.83239175067,1847.94030550631,1822.64232093669,1802.06832836673,1790.88676748394,1785.52746122995,1820.94267613402,1906.13222138381,1894.95463973354,1803.44453808907,1751.41905889839,1707.51426679504,1667.18802192715,1612.33208734575,1534.00121702065,1416.47753372791,1194.3226575311,1093.81323586229,1073.93612444352,1126.45935694277,1190.13035608096,973.743017945624,796.698832146993,651.844499029358,533.327316794227,436.35871311182,387.263893130899,318.20978366854,262.861702585197,222.743289568416,238.118462602991,291.010100836503,254.721231219227,208.40827925264,170.515864843069,142.935727945953,138.362634776122,126.869957301349,124.122771840675,112.446851394804,110.934336716566,103.254581654186,100.426630298111,97.5795710891086,89.6216318722256,86.7151727570444,82.5369262617504,80.3319800473479,80.1663475133009,70.9893355061458,71.6087042840426,61.2396196988164,62.6951941762907,57.1444394631112,51.9104542519979,50.8691636167201,48.4692334086955,40.9550107228631,36.9365144612172,30.2207836859522,24.7260948096488,20.2304412078945,16.5521784059324,13.5426906186732,11.080382489364,4,6.38571661211387,6.39805270990814,6.21186865249633,5.64271302844491,5.95287397504444,5.16183954709445,4.40602390709536,4,4,4,4,4,4,4,4,4,4,4,4,4,4,4,4,4,4,4,4,4,4,4,4,4,4,4,4,4,4,4,4,4,4,4,4,4,4,4,4,4,4,4,4,4,4,4,4,4,4,4,4,4,4,4,4,4,4,4,4,4,4,4,4,4,4,4,4,4
2664.64012450884,2660.43378485265,2656.40823944932,2650.21737507392,2645.42974239711,2642.91073127638,2626.42441497419,2613.06317141952,2605.23764205943,2597.54032871827,2589.79549387762,2591.05507839214,2589.91957460596,2579.76866596829,2570.1081376903,2561.44721490475,2558.73198706484,2558.04668962858,2564.70989906616,2574.89504085349,2572.50383061688,2570.56332009399,2566.44431732687,2560.24509432298,2543.68041743012,2507.18929143803,2051.33669299475,1734.87663661119,1687.42350768236,1781.68473686008,1846.47612100456,1860.56695742864,1857.34859838522,1841.77600038758,1817.77973969096,1799.34368514485,1787.98389243441,1783.01670685072,1816.63940450455,1902.0644752745,1887.47578163767,1790.48852027727,1747.48710818265,1721.74225074061,1700.52465680168,1652.08990172014,1601.46746182149,1475.15983000857,1315.00823205375,1140.07876172705,1149.55666926762,1302.73131460785,1090.43673402177,892.175508784761,729.961779914805,597.241455574335,488.652099294076,399.806262155532,327.11421359865,267.638901235954,218.97728216012,182.244508982526,194.824196675174,238.099173411684,252.076403756039,206.244329711645,168.745360673164,144.098071881382,139.069376103357,127.889598013062,123.077496234346,111.21486426956,108.217845800383,102.982427015199,100.930162272791,97.9759580026046,92.6196687750941,90.5197766994667,84.0837822094235,81.8412512298803,79.2901860016689,73.2749412757909,73.9198052004479,64.9582089125988,60.5749252176652,54.7820741026722,51.8498668701031,47.8620492659932,45.226941588833,39.0612071351747,36.5851933875219,29.9333390892924,24.4909138003301,20.0380196001662,16.3947423250276,13.4138790907866,10.9749911796461,4,4,5.23477039901575,5.08243798840609,4.61676520509129,4.87053325230909,4.22332326580455,4,4,4,4,4,4,4,4,4,4,4,4,4,4,4,4,4,4,4,4,4,4,4,4,4,4,4,4,4,4,4,4,4,4,4,4,4,4,4,4,4,4,4,4,4,4,4,4,4,4,4,4,4,4,4,4,4,4,4,4,4,4,4,4,4,4,4,4,4,4
2663,2659.21562204168,2654.89256276737,2649.06144403833,2642.94234845821,2636.95750759982,2622.04963955803,2610.8973415117,2603.25646257702,2595.13825904769,2586.11537143118,2586.95805950786,2587.34666355948,2577.48141983904,2568.95000245973,2560.45936375204,2554.92129789495,2553.2780594608,2558.48756614528,2567.82249614027,2570.31601924771,2567.08175811643,2562.71914446043,2558.01881873996,2542.45664565431,2513.18575068773,2067.71017662653,1728.44810568588,1673.95780445625,1716.62000433368,1827.00840694575,1848.2652475121,1849.60107387698,1837.8884349443,1815.56107200971,1798.73604605808,1788.224496668,1786.98102974575,1816.79508980495,1895.30629657792,1870.13731876075,1791.05302634543,1751.99411994442,1726.93776475294,1705.08905691576,1649.76862983514,1596.21077156047,1541.72020607309,1411.6529668464,1217.66298899295,1349.89523946549,1304.33316965056,1067.18168337004,873.148649062055,714.394349232591,584.504466752764,478.230926487827,391.279848011612,320.138056561113,261.931136362407,214.307292663584,175.34232972532,173.441081130757,197.594995423362,220.515975319394,180.422161624959,149.09781043023,143.755210756676,130.217924761565,126.355188327477,121.114366795924,106.988707796628,105.988845549735,101.968111318821,96.9234323535826,97.7226643575907,91.7355352159338,86.3348613277675,81.3708680086235,79.8661976986385,74.0919401274237,73.3485775202386,71.1528149201556,62.2637355790216,55.4992601743119,55.9424487332025,49.7380146039142,46.4810066601448,44.9270828329818,37.2928649536015,36.4137711698899,29.7930845444934,24.3761600818582,19.9441301916056,16.3179237148287,13.3510274973994,10.923567146084,4,4,4.28299343397419,4.930758754194,4.06228322478019,4,4,4,4,4,4,4,4,4,4,4,4,4,4,4,4,4,4,4,4,4,4,4,4,4,4,4,4,4,4,4,4,4,4,4,4,4,4,4,4,4,4,4,4,4,4,4,4,4,4,4,4,4,4,5,4,4,4,4,4,4,4,4,4,4,4,4,4,4,4,4,4
2662,2658.86920279253,2654,2648.13064480289,2641.04928936715,2632.44363664089,2617.96171972824,2609.04091370579,2601.00172726121,2592.10459848856,2581.85919371074,2582.861698359,2583.86330672594,2575.23312989537,2567.74154636047,2560.22700110409,2552.04155638983,2549.83993574386,2552.73403047188,2563.50074987712,2570.26514731909,2565.0154953631,2559.78302820198,2549.34727783692,2545.52755537096,2521.84055804924,2116.5276666926,1731.70445456667,1654.17512871486,1677.29265208446,1777.65713674865,1829.10521905562,1841.72358382965,1835.72901984482,1815.3952638461,1799.92053823508,1790.56840227857,1793.34379147681,1817.36484169448,1866.23302078136,1851.032647652,1797.58435829317,1761.98573298962,1724.9266892895,1689.65380015874,1617.68658067628,1565.48822913705,1507.73416125842,1365.63008145586,1377.07251236734,1535.36372967095,1362.26359075653,1114.57930059437,911.928517690006,746.123331683324,610.464543166135,499.470988967818,408.65808188276,334.356611710197,273.564499779796,223.825499143682,183.129953199553,170.897082620032,178.198205067613,209.167725038328,171.750858405411,153.577763396277,142.650779790223,132.836861917308,119.689880720945,117.230520590778,107.058833174943,104.002773605957,100.121117848195,91.779463226266,93.0343440447149,90.3496298781738,85.9751220437018,82.4339497043993,78.7712222901505,73.4230443448215,72.0552367743653,65.5423544473232,61.4971783947089,55.2133394429866,53.5583617594206,48.4060080624265,45.9576920809263,42.6339247806822,37.2454537258638,35.8049887738799,29.2949900101108,23.9686273297412,19.6106950879701,16.0451134585294,13.1278193610247,10.7409424277071,4,4,4,4.03425716252237,4.54359831913865,4,4,4,4,4,4,4,4,4,4,4,4,4,4,4,4,4,4,4,4,4,4,4,4,4,4,4,4,4,4,4,4,4,4,4,4,4,4,4,4,4,4,4,4,4,4,4,4,4,4,4,4,4,4,5,5,4,4,4,4,4,4,4,4,4,4,4,4,4,4,4,4
2662,2658.18587205604,2653.56033223804,2647.61962434267,2640.84912241422,2630.0648943302,2615.38348245229,2606.72742213958,2599.65718083726,2588.14971608384,2576.25048883,2577.08221911833,2581.4714842211,2572.84045915667,2567.09786479757,2559.60338815814,2550.06170286053,2546.15894221709,2546.82151768587,2560.4524662994,2567.49452283314,2563.32526224769,2557.62053699699,2543.69502117421,2551.782245144,2517.21852973774,2190.14143195441,1795.95468448644,1649.63051091049,1666.90840980435,1701.98905888544,1787.19839492039,1828.44250556269,1833.27144346129,1815.22893828965,1801.68325646637,1793.63158176574,1795.62900651942,1811.30932575425,1838.13613227162,1831.9179720414,1801.28520252094,1772.53750757843,1719.35942741662,1682.41339027068,1599.85023543636,1572.55864336119,1513.83419510112,1469.62313011869,1551.27192303418,1576.41775913195,1298.14665672397,1062.11999096249,869.007264350756,711.005943559709,581.732134826821,475.962654899494,389.423989425637,318.619626795691,260.688784724052,213.290823130662,174.51067282541,166.949911423952,167.481600459597,171.137229576814,166.307377996629,157.468809581798,137.727545572273,129.842809579351,121.081672176443,115.219507133397,105.219816468793,102.675512904018,96.78733946201,92.7455904019381,90.0729587469894,87.0117217675209,84.0941958129063,77.3723096720871,73.2648016168301,70.2444874252,65.1793173699246,63.6399507231366,61.2577371888111,57.6135324489,53.6937862244323,48.2157899282078,44.2238595030717,41.983960312566,36.8282257248156,36.3882251254189,29.7721832017801,24.3590580563188,19.9301375599373,16.3064761854032,13.3416616379738,10.9159043330991,4,4,4,4,4,4,4,4,4,4,4,4,4,4,4,4,4,4,4,4,4,4,4,4,4,4,4,4,4,4,4,4,4,4,4,4,4,4,4,4,4,4,4,4,4,4,4,4,4,4,4,4,4,4,4,4,4,4,4,5,4,4,4,4,4,4,4,4,4,4,4,4,4,4,4,4,4
2662,2656.99933766464,2652.3415176623,2646.26852414428,2639.44734173434,2627.71813527403,2612.09541351905,2604.42500597365,2598.46780670502,2583.05606823503,2569.12423577599,2571.39647154387,2576.88941020238,2570.37160146228,2566.07603398985,2558.07905672534,2547.48138022862,2538.09228875888,2539.20415665443,2555.62180343988,2563.30687872074,2557.42811064684,2551.9838132812,2545.67257615801,2552.63327079158,2504.09455374811,2198.97445122995,1908.83249883068,1682.47690462664,1676.23902947188,1683.72636549999,1720.59026393806,1800.78026508322,1829.50963222937,1814.09754838294,1800.7547442902,1794.47407758497,1794.85987364375,1804.54705145424,1817.36828585615,1814.77100735977,1803.3061057147,1783.38507635311,1723.24138605974,1699.40453968682,1690.95624041374,1613.82454150984,1609.63269163708,1607.56526612503,1542.87708301767,1357.62786149951,1145.5523281206,979.07918702486,801.064788585314,655.416644371464,536.249981758471,438.749984384852,358.977259236059,293.708665879004,240.307089531264,196.614890750455,168.266487765181,163.652320428629,161.69017589699,153.811320988145,146.983890438576,143.688805763315,139.544213919525,125.587604118293,121.582246043348,113.587298298728,107.51782090287,101.08729381556,93.9316875366416,87.347421422229,89.3808545820094,84.3251100477011,81.7824036091223,76.9577177635686,70.8960387847974,69.6358194583411,66.5813402911636,62.1169347224818,60.5900316361044,57.489139900569,52.8805328762977,46.0770445959867,44.1314894249182,41.7123700259277,34.1283027484863,36.442143087202,29.8162980371761,24.395152028416,19.9596698414313,16.3306382152738,13.3614304819065,10.9320787588866,4,4,4,4,4,4,4,4,4,4,4,4,4,4,4,4,4,4,4,4,4,4,4,4,4,4,4,4,4,4,4,4,4,4,4,4,4,4,4,4,4,4,4,4,4,4,4,4,4,4,4,4,5,4,4,4,4,4,5,5,4,4,4,4,4,4,4,4,4,4,4,4,4,4,4,4,4
2662,2656.02714675565,2652.46120620461,2646.16951683746,2638.92840839196,2626.52741382753,2610.94935124703,2602.91478202377,2597.26513194894,2578.09356976387,2563.83853601468,2566.31732559945,2571.37694283594,2567.78887752346,2567.53659376901,2557.66898227663,2545.19892447115,2536.15180238235,2537.67579862976,2556.18308149155,2558.2520987775,2553.05755861235,2545.31905478523,2551.41128144883,2541.16344969538,2486.06196081207,2176.53720886217,1995.14111177523,1782.02816900326,1698.60796676305,1693.16949254025,1687.96233290176,1758.41786140178,1825.31440410834,1809.72608338851,1796.65311233601,1791.8349508989,1793.8901025795,1801.55788110179,1804.04692914449,1802.15172042957,1804.91849894239,1796.4576551071,1744.37563531498,1703.88456450072,1684.11488414935,1612.58207983706,1580.72065220128,1513.23438044533,1401.92010466482,1264.36643332736,1203.57437176031,1032.83458515185,845.046477859039,691.401662760793,565.692268585437,462.83912884263,378.686559180394,309.834456726352,253.500918372327,207.409841606223,169.698960683868,167.88048378268,157.672535334939,150.00315711411,143.70294653204,138.177047943508,129.767942584347,121.964811712147,119.744784304079,113.72482223117,104,102.654089543286,94.5614762913584,89.6792809074379,85.907140537916,81.0159683077363,75.1300204157815,72.4795065648426,70,68.1179082023386,63.6642184331552,63,58.1746145653808,54.091043952284,49.1956335834436,40.2509729319084,44.2816792645437,41.0258970663941,36.9188988138508,33.8504893703068,27.6958539612033,22.6602432358367,18.5401981730192,15.1692530506521,12.4112063554469,10.1546227471316,4,4,4,4,4,4,4,4,4,4,4,4,4,4,4,4,4,4,4,4,4,4,4,4,4,4,4,4,4,4,4,4,4,4,4,4,4,4,4,4,4,4,4,4,4,4,4,4,4,4,4,4,5,4,4,4,4,4,5.49187388964022,4,4,4,4,4,4,4,4,4,4,4,4,4,4,4,4,4,4
2661.11605966649,2655.53615307864,2652.14808745581,2646.02567223604,2639.14878762312,2625.30671658244,2610.08796147704,2601.66188432951,2596.11999031685,2571.9056146636,2557.97653085605,2562.41681150692,2567.91044649831,2563.00559875459,2567.0079520657,2556.78374229051,2543.26304158737,2534.98879453922,2537.83606631346,2557.70133243207,2554.841817505,2550.97972473749,2539.12263751432,2550.97042770394,2516.41877069448,2430.13371660228,2101.12307665,1941.61130062768,1827.92501597255,1721.51283917722,1701.94948325567,1685.40103523512,1708.89696936657,1816.51953900217,1801.58372964651,1788.53037630347,1785.08715559671,1791.09561206233,1799.78911003698,1799.13651288397,1788.70774486807,1794.52599638444,1798.45975583176,1753.04776000568,1703.28091566515,1656.63402292771,1579.53881483521,1516.22998043839,1435.30609011221,1373.80106860687,1313.76643411197,1236.73175113564,1096.86665697671,946.777299586535,791.420486119135,647.525852279292,529.793878473319,433.467718292613,354.655405038562,290.172603217048,237.413947230106,194.247774272517,162.37412810747,154.114848372761,147.864332427492,140.395016352365,135.753907246106,126.769050815807,120.521732923967,116.131653849191,109.8288544405,104.999280190634,100.298755713391,94.9840355774007,89.1949343108536,85.3704009399771,80.3219046905418,74.7168349810872,70.8745172708834,68.8248719940951,65.9821120604951,63,62.1111255505851,56.3092005961774,53.0002814745461,51.7994350033987,43.370778655585,41.9217922845885,40.2934186960835,37.9031132141673,33.4555739335739,27.3727414485838,22.3958784470046,18.3239005475492,14.9922815129712,12.2664113541481,10.0361540108771,4,4,4,4,4,4,4,4,4,4,4,4,4,4,4,4,4,4,4,4,4,4,4,4,4,4,4,4,4,4,4,4,4,4,4,4,4,4,4,4,4,4,4,4,4,4,4,4,4,4,4,5,5,4,4,4,4,4,6.7122910873283,4,4,4,4,4,4,4,4,4,4,4,4,4,4,4,4,4,4
2657.68916577497,2653.89351525421,2651.02095641985,2646.7637412438,2639.5011067289,2622.67368475783,2609.07248362377,2600.48308969965,2595.88584126542,2567.65967268499,2546.83345180101,2555.61425363062,2562.9210463141,2557.30950628833,2560.86466747697,2555.54035131833,2539.01120691306,2532.34705767731,2534.66374280544,2548.81584799275,2547.34010436096,2543.97447725022,2534.74919530809,2546.6372675914,2466.98527557874,2342.49894101722,2050.56603491609,1829.38130031889,1757.48501954878,1718.07389558116,1702.83808603493,1688.26073513253,1682.09222296433,1776.39398888544,1785.47443591443,1775.00757101075,1773.64972755284,1783.49262625846,1799.55721176675,1790.88483385496,1751.33830246424,1751.13030666056,1762.61571608026,1743.09969332954,1709.30360416423,1666.6587880294,1578.12638639225,1501.38666438162,1448.67461924318,1416.49978494259,1398.23448639362,1249.90274493315,1190.415515728,1126.87653149931,934.927043317398,764.940307311292,625.860250522988,512.067477700626,418.964299182563,342.78897126557,280.463702907123,229.470301561953,187.748427808009,153.612349354885,143.817760667694,138.132554766673,133.091996191891,125.760458247772,116.971109137527,113.727772830459,108.822558756315,103.904258122186,98.2747578313917,93.3540465295266,87.7780480050459,85.9131836489128,79.7361209701068,73.3628585644451,71.4692111382134,67.0187631259452,64.6407128126723,63,62.7115148187964,53.9822231206911,53.4209628413951,50.0528751300049,44.6434470782491,42.1945309975445,39.6352466482299,38.5322804921753,32.9303113736568,26.9429810400638,22.0442562865355,18.0362088381913,14.7568981403383,12.0738250548179,9.87858349156724,4,4,4,4,4,4,4,4,4,4,4,4,4,4,4,4,4,4,4,4,4,4,4,4,4,4,4,4,4,4,4,4,4,4,4,4,4,4,4,4,4,4,4,4,4,4,4,4,4,4,4,5,4,4,4,4,4,4,8.20391218646102,4,4,4,4,4,4,4,4,4,4,4,4,4,4,4,4,4,4
2655.87588643584,2652.92850337987,2650,2647,2638.37139790884,2620.20920100446,2607.31960587207,2600,2595.71625676083,2575.13101889783,2541.96686891661,2549.17952198014,2561,2556.36390763518,2555.95844679348,2552.24346659298,2534.09311904079,2529.96709561365,2531.65355196357,2539.81948427439,2541.41855112302,2532.95088600575,2532.36257151221,2539.023357911,2294.62032580639,2264.10685789321,2020.67820526283,1761.03339939284,1689.29352246666,1700.97907703635,1700.02036388595,1690.03038408507,1677.81794361878,1717.24302360578,1756.31885441748,1755.50514250171,1756.64884705739,1770.79239404464,1801.22520030501,1776.31894314843,1686.43603794062,1683.64357788447,1719.7186927372,1730.83205266614,1720.87044043358,1701.66516278356,1631.41440361162,1540.8968527668,1506.27800966232,1436.05278337221,1362.06460848785,1215.1277235283,1200.0547289103,1208.679030745,988.919206048367,809.115713071631,662.00376427928,541.63944257416,443.159543040322,362.585080669354,296.660519818608,242.722242787925,198.590925251543,162.483483661684,143.549935519389,134.803721748475,130.044461901705,123.492612278169,117.030849188993,115.126173011931,108.387614459381,102.800611499986,96.2661623402893,92.4595291485696,85.1872244291423,84.5894136502062,79.1276182175397,74.1524993792217,71.620314894806,67,66.924477924087,61.9833221856329,61.4285435696767,55.0912404053746,53.4312795734627,50.2053921244903,45.9821439807955,42.6053853376366,39.7610252926696,38.3577535811297,33.5378853978945,27.440087081759,22.4509794319949,18.3689823395743,15.0291673687426,12.2965908024828,10.0608463902055,4,4,4,4,4,4,4,4,4,4,4,4,4,4,4,4,4,4,4,4,4,4,4,4,4,4,4,4,4,4,4,4,4,4,4,4,4,4,4,4,4,4,4,4,4,4,4,4,4,4,4,4.94962651762642,4.04969442351252,4,4,4,4,12.2552291104997,10.0270047471546,4,4,4,4,4,4,4,4,4,4,4,4,4,4,4,4,4,4
2654.83055194437,2651.23181558538,2649.35152779796,2646.24707495282,2635.75973656744,2617.4653991622,2605.88788408848,2599.28528842058,2594.95897891799,2579.65110410225,2540.22650538369,2546.35181514167,2562.20305162224,2555.93887419556,2552.83960788016,2547.61525523172,2531.31595127015,2527.15199107917,2526.59574101108,2534.07565982006,2538.92038408016,2522.46489936763,2531.13600840768,2521.93304645756,2135.87143745569,2204.72315819699,1999.07372245599,1742.72718291397,1686.10677799117,1695.26320476711,1698.54938991601,1690.26117064776,1682.60278605118,1697.9444375788,1726.5956004494,1732.44423686329,1737.51034919832,1752.46786351084,1793.39012220966,1758.94321530755,1607.25699308732,1611.0506386672,1686.67352916976,1724.07310899895,1731.63399831001,1721.0673401222,1674.43011641871,1589.73200992631,1496.17059624789,1399.01433922374,1333.02147030021,1190.18409678015,1187.26840471369,1086.29003997869,888.782759100648,727.185892869682,594.970275984285,486.793861392311,398.285885777093,325.870269299779,266.621128585536,218.144558986167,178.481911207021,149,140.238711121885,135.26464042666,128.115926023214,123.636875252849,116.659864381511,110.292001513102,105.914369545709,101.525971955736,93.5119645857617,90.246203078249,85.1661624574174,83.6905400257921,76.1347671028784,73.2079995025636,73.1784558675004,67.990970910138,67.6493846399551,61.841551822065,60.2622323541621,53.4879808204195,52.9381632355447,50.5110208365625,45.7515317868507,42,39.6521961752577,37.001473180335,32.386658625426,26.4981743966376,21.6803236059431,17.7384465866807,14.5132737428701,11.8744959227926,9.71549594631928,4,4,4,4,4,4,4,4,4,4,4,4,4,4,4,4,4,4,4,4,4,4,4,4,4,4,4,4,4,4,4,4,4,4,4,4,4,4,4,4,4,4,4,4,4,4,4,4,4,4,4,4.94962651762642,4.04969442351252,4,4,4,4,14.9786145477643,4,4,4,4,4,4,4,4,4,4,4,4,4,4,4,4,4,4,4
2652.94889620777,2647.97784852498,2645.91113232412,2644.84503674327,2632.61520852142,2613.56671507249,2604.09534201619,2598.82954492062,2592.92201910094,2577.05702716003,2538.00238123411,2542.85363017387,2566.02556801636,2555.11818058295,2548.06931052683,2541.3709550166,2528.58506754138,2522.73019832696,2518.64141425527,2525.07306072605,2532.36837794426,2516.46578431438,2530.17255167388,2497.79802416236,2101.59501655129,2202.92870593871,1986.57585692609,1750.75015655277,1689.73237841089,1696.13324111383,1699,1693.68507835082,1689.50198845578,1696.4052510361,1707.56088918336,1712.67515998701,1721.42815541644,1733.11228694381,1758.95548591206,1743.65098446729,1603.85445814422,1588.59585473605,1657.18821529067,1714.43608161513,1736.22885374455,1729.08053226156,1696.13541938634,1619.0559119052,1523.81097618801,1464.62685185406,1439.65818786824,1318.50242192301,1207.19518654079,987.705151734387,808.122395905608,661.191051195497,540.974495632202,442.615495572147,362.13994999126,296.296321819,242.4242624844,198.34712312894,162.284009198869,145.972804497375,137.766404143426,133.040817896589,127.019933763423,123.951453289564,116.197619474594,110.03783454264,104.973538250805,100.95392479918,91.7248470423412,90.8457854767422,84.2797975263478,81.3072213639111,76.917437123905,74.7893653027662,71.9599000921938,69.0647672258728,65.7467212839918,62.4988155955127,59.1026813320493,53.5003913925518,52.925251349713,51.914996827054,46.9790680955854,41.7471955489146,39.7353019097559,35.0105039770503,31.8818915330945,27.0943931566069,22.1681389252827,18.137568211595,14.8398277752817,12.1416764148611,4,4,4,4,4,4,4,4,4,4,4,4,4,4,4,4,4,4,4,4,4,4,4,4,4,4,4,4,4,4,4,4,4,4,4,4,4,4,4,4,4,4,4,4,4,4,4,4,4,4,4.43762059914857,4,8.43301230682414,4,4,4,4,4,18.3071967139713,4,4,4,4,4,4,4,4,4,4,4,4,4,4,4,4,4,4,4
2651.22017796104,2646.23155068096,2643.17662581184,2641.4574179971,2628.38479439988,2608.60796763011,2602.05390842223,2596.83483422029,2588.99822317037,2584.97426423369,2539.43590974115,2543.8857755035,2567.28735014564,2556.46981656499,2546.19564121182,2537.38259237191,2527.14683841434,2520.08129638469,2513.36208456955,2517.21764343149,2525.19330491759,2510.82044429823,2520.78392743704,2442.31959153929,2084.17156979645,2167.07551748098,1981.40971850293,1760.8976979438,1699.80109237179,1699.95043450556,1699.80325726149,1699.43638601259,1696.60825041881,1696.46600475967,1698.82625374202,1700.58242442908,1712.3241461522,1721.51553944941,1732.05111187204,1731.96148484968,1627.64197447588,1581.14622536851,1618.70192820545,1703.32062468202,1730.74960527505,1724.23355551218,1707.21405711841,1671.76030638923,1609.96822416745,1582.75178759335,1499.05864648636,1419.58975800058,1170.27858424309,957.500658921542,783.409629069945,640.971513743123,524.431237600031,429.080102616204,351.065538504167,287.23543987249,235.0108137478,192.281574224852,157.321287372787,143.029306681,136.645101954869,131.182934393845,125.108193430157,123,112.12944642932,109.827945347549,105.060145647734,100.857540626814,93.0206151060515,89.0431057645083,84.1138912621913,81.648467033793,76.5236621682386,74.1215095115202,72.396637804633,69.1133867539556,63.0972567315743,62.0538653468105,58.5836567267699,52.8614099230846,52,51.519545818191,45.4906137122625,42.1127901096573,39.0961438889249,35.0412868116137,31.8208306579146,26.6786316184575,21.8279713241925,17.8592487790763,14.612111753199,11.9553631679266,4,4,4,4,4,4,4,4,4,4,4,4,4,4,4,4,4,4,4,4,4,4,4,4,4,4,4,4,4,4,4,4,4,4,4,4,4,4,4,4,4,4,4,4,4,4,4,4,4,4,5.42375851007047,6.1367757011523,8.55138669157099,4.07698953313027,4,4,4,4,22.3754637333245,4,4,4,4,4,4,4,4,4,4,4,4,4,4,4,4,4,4,4
2648.0191987619,2643.81868230778,2640.70211894338,2637.32682325135,2622.58759264853,2603.07467618738,2599.99363230907,2594.41562829031,2584.92136964093,2580.45942249318,2546.86032377541,2541.62164552613,2558.50954969287,2556.52769963776,2544.14812236672,2534.60451675031,2526.010002914,2516.97107937904,2508.87466561306,2510.0177476035,2516.37700772259,2505.88311382394,2502.86838843586,2410.35250439977,2084.44266789984,2113.89874571119,1978.23641863127,1758.76505596374,1708.19568413555,1703.38910879948,1700.07876808565,1703.60840373517,1701.18251317339,1681.86630669545,1671.75746175754,1687.62987654173,1709.60877470579,1719.29895950264,1724.46575723088,1723.88208473957,1668.00719811978,1594.52146249659,1597.16256963349,1675.74177905802,1716.8740490361,1704.8775872526,1689.6264956295,1651.89417411192,1604.49855643377,1572.89304708665,1512.57104713546,1502.42089653524,1238.72583784786,1013.50295733536,829.229691382191,678.460656585429,555.104172756914,454.176140479022,371.59865944597,304.035265904231,248.756125814019,203.527738569168,166.522694549153,143.94356658086,137.620321735526,132.189114795615,124.290832404376,122.268737187708,115.832235245091,109.089694270552,104.977409752725,100.967551862095,93.7856291283511,90.6679453136648,84,82.3316655375328,75.6522886811428,71.1570454825341,71.7696710833311,68.6740788992623,62.9409680755386,60.3091449387989,57.0594712201461,52.1295456220679,51.7687263539771,50.0524824037977,46.769233114633,43.3438889137666,39.6615887515593,36.3980609902173,31.0404399406554,25.4684927652417,20.8378570021239,17.0491557290104,13.9493086475553,11.4130700538502,4,4,4,4,4,4,4,4,4,4,4,4,4,4,4,4,4,4,4,4,4,4,4,4,4,4,4,4,4,4,4,4,4,4,4,4,4,4,4,4,4,4,4,4,4,4,4,4,4,4,4,5.02099830094279,6.09031976777191,4.98298838615086,4,4,4,22.4074820140117,27.3477900214848,33.4250776116267,4,4,4,4,4,4,4,4,4,4,4,4,4,4,4,4,4,4
2641.15737746735,2640.33093575643,2636.51000220134,2631.107662461,2616.87476914721,2599.14525438745,2597.98530116977,2591.452219079,2581.83718929027,2574.99720499309,2566.43402210901,2536.49086085226,2542.20531793996,2551.33064523465,2540.46085476208,2530.97767387364,2522.52326832039,2514.40499964236,2505.35474981099,2504.02503261956,2508.73577074263,2502.17513929758,2499.3391278851,2414.56989872171,2098.0150407469,2101.56908919571,1965.72774743038,1771.66644297065,1722.07278747474,1707.66921831442,1701.61991917408,1707.9797593073,1710.71313256241,1643.11349083531,1618.1149540524,1674.02893745678,1713.35952975939,1719.46167913004,1725.80076941503,1724.17601216745,1693.72995308799,1625.16123543347,1605.69858003238,1655.98094979023,1705.23993512866,1677.03375366908,1638.10806671057,1594.27605188896,1559.06931129447,1518.22741940503,1427.10158720148,1434.67305642208,1224.3820636884,1001.76714214121,819.627660798413,670.604449744156,548.676367184,448.917026854591,367.295748327206,300.514702289176,245.87566469958,201.170997679443,164.594452022409,143.389137267201,137.596578851907,132.249351019221,125.557112371022,120.68283446476,115.527591749046,109.962130185315,105.604852318747,99.8023773944386,92.6184031143682,87.0393375268395,84.0055263526711,80.3677255877802,75.8785463920585,69.1663055969986,64.5299737102548,65.6291848292259,63.1474240137584,61.5965713591267,56.1557984564958,53.0820185335367,50,49.1974961859413,46.0754898147435,41.4033150361129,39.8820892426231,36.0023468135252,29.9158518317069,24.476605134536,20.0263132918931,16.3851646759337,13.4060429227683,10.9685797520846,4,4,4,4,4,4,4,4,4,4,4,4,4,4,4,4,4,4,4,4,4,4,4,4,4,4,4,4,4,4,4,4,4,4,4,4,4,4,4,4,4,4,4,4,4,4,4,4,4,4.07698963998622,4.98298801750175,6.09031946670803,7.4437248610355,4,11.1516466035622,4,29.3533224401441,27.3869224615699,33.425077252096,40.8528730114626,4,4,4,4,4,4,4,4,4,4,4,4,4,4,4,4,4,4
2641.36983058759,2637.89236304997,2633.8161210226,2627.91764817592,2612.29515742941,2598.10104985988,2594.57721521797,2589.16515555454,2579.91511863812,2570.96728923815,2565.83108099844,2529.3724585305,2530.96542397118,2545.61426243189,2536.74587044008,2528.08152585745,2519.23088538225,2511.4249261873,2502.6257325573,2499.92391627555,2503.03370425234,2499.8920262496,2500.94543757599,2447.56181088159,2103.76764140575,2090.53354194638,1949.71225265793,1803.57811692226,1739.36117904407,1713.04363956307,1704.74681232181,1712.4037286764,1715.47650623821,1596.12401154797,1597.11442606874,1667.15818780673,1714.99128055726,1715.67548219759,1725.97880427289,1728.58291366949,1710.80649974477,1650.41791708309,1602.64278034705,1631.70558368404,1670.47758215385,1627.98347756471,1581.12638561888,1535.10628524444,1504.53659622646,1466.34682772161,1354.43001137587,1305.96810705908,1169.90848147635,957.19784762119,783.161874391556,640.768806320364,524.265386216291,428.944406079256,350.954513165298,287.144600810399,234.936490778208,192.220764484931,157.271533966362,145.624332180561,139.202298574859,129.618236349908,124.00582902415,120.237652373132,115.179304404785,110.293361076406,104.948699025825,100.478526563253,93.7694995374942,90.7639438133012,84.2143412737726,80.4649416500741,75.7169800756651,70.0530733658467,67.8303523126911,63.9953483571096,61.9361281180829,61.0080651033203,56.2001343103551,51.3451497143687,49.9401829576033,47.4615129162381,41.9646168960064,40.288273090799,39.7227181545527,35.9980843508,29.4529772597921,24.0978895816921,19.7164551122935,16.1316443520792,13.1986173274286,10.7988680017414,4,4,4,4,4,4,4,4,4,4,4,4,4,4,4,4,4,4,4,4,4,4,4,4,4,4,4,4,4,4,4,4,4,4,4,4,4,4,4,4,4,4,4,4,4,4,4,4,4,4,5.00012597731496,4,9.09788669953337,4,13.6297902932427,4,35.8762829823983,32.7511471753217,4,49.931290149707,52.2380226757882,4,4,4,4,4,4,4,4,4,4,4,4,4,4,4,4,4
2640.50528135683,2635.39712525648,2631.52248632212,2624.52638748125,2609.59155575036,2597.62685237601,2591.39716377874,2587.42344498865,2578.1476060643,2567.84024769853,2556.83005331745,2521.35365860648,2519.04943568456,2542.92267073159,2536.11399424095,2527.42811500926,2516.37755721802,2508.81114645362,2500.36848711933,2498.05407642891,2500.10371832599,2498.41663519358,2502.69373608553,2396.78490710966,2101.46173952548,2060.889530485,1947.42092763391,1823.89175478829,1755.63091353911,1719.50733074539,1709.2236080937,1716.15191535997,1709.83266476532,1596.71406228061,1599.0504166896,1650.97028171031,1690.34616990839,1696.42314379718,1716.79536027361,1727.86041039778,1718.44701420772,1655.11766480784,1589.31464858412,1607.39876469519,1623.52360679212,1570.96309051961,1503.82900102035,1460.24570976222,1460.09401996682,1431.25425444314,1292.86860022665,1176.57331792279,1078.76979318798,882.629829914787,722.151678087779,590.85137298091,483.423849848857,395.52860360991,323.614311167831,264.775344663767,216.634372144814,177.246303794501,145.889779790623,143.976113920443,139.298329742862,132.365650983197,128.20364465772,121.588327534079,116.138287064919,109.463142731214,105.247476417501,99.5143170725312,95.9930183653889,87.092536204924,84.0052841594769,79.6324237433403,75.8731473306071,71.6111099517733,69.1047306785981,63.3925143933722,61.6442081296206,59.1806949600411,55.651927768588,50.1688425338595,48.673343150352,44.9555258982191,40.7600755838575,40,39.8759433470152,34.4474374877196,28.1842662444944,23.0598533546946,18.8671527447501,15.4367606445041,12.6300761623429,10.333698004037,4,4,4,4,4,4,4,4,4,4,4,4,4,4,4,4,4,4,4,4,4,4,4,4,4,4,4,4,4,4,4,4,4,4,4,4,4,4,4,4,4,4,4,4,4,4,4,4,4.0070193583308,4.89746907699909,5.98579553855445,4,11.1196401036883,13.5906721852981,16.6108215598088,4,37.0673791987144,39.0026603116703,4,61.0271333746984,63.8464721592967,4,4,4,4,4,4,4,4,4,4,4,4,4,4,4,4,4
2635.22382023779,2630.32137242323,2628.49509781813,2620.33392989937,2608.10872984017,2596.8647820898,2588.07700743127,2586.08657601537,2576.23247505835,2564.73302526838,2551.69201001287,2523.52333899428,2505.20888442109,2542.98212681693,2536.5652135045,2524.27506613103,2513.61287227302,2506.30684825603,2498.95477510082,2495.8441351525,2498.51764695266,2498.97929396086,2502.84420094256,2400.59770183558,2106.21428256853,2039.08989938181,1944.43027929198,1839.07147303593,1768.65495421045,1726.62740381416,1714.01816610622,1718.90356573782,1703.71054194233,1616.472947965,1600.0572839489,1626.79027102005,1618.94794885471,1643.59274970687,1698.55262886581,1722.17139923272,1717.02249622056,1656.03828916924,1586.65219973741,1600.12250640872,1592.76374268163,1528.99109498652,1438.89643986274,1363.87757737881,1343.86160436411,1355.9050276707,1293.87205143912,1147.32016706986,1050.98749094023,859.898855330484,703.553607973304,575.634769222493,470.973902091131,385.342282754487,315.280048748685,257.956402761243,211.055237930804,172.681557682462,147.945828534649,144.0077921349,140.37872381164,132.104911739141,127.01855326038,123.485135812938,113.335456326421,111.066962859462,105.739139644116,101.00647299673,95.515981535051,89.3403869811948,84.0453891353129,80.3512924214155,74.0428612674498,71.7094510925314,66.990593335471,63.9701947640574,59.11809636015,58.498784206358,54.0871214470585,49.3429240295091,47.9888019455996,44.4114118440236,41.2248831222705,39.0157224016659,38.4329085911734,32.5911922582608,26.6655200788599,21.8172427819991,17.8504713670902,14.6049303662094,11.9494876894439,9.77685283119184,4,4,4,4,4,4,4,4,4,4,4,4,4,4,4,4,4,4,4,4,4,4,4,4,4,4,4,4,4,4,4,4,4,4,4,4,4,4,4,4,4,4,4,4,4,4,4,4,4,4,7.31597349156137,8.1279766226579,4,16.6108213715378,20.3021160480845,24.8136984651867,30.3278547713564,31.9112675277303,4,74.5887185690758,78.0345781677798,4,4,4,4,4,4,4,4,4,4,4,4,4,4,4,4,4
2631.12524851942,2629.60301428725,2628.43183906001,2617.86696804801,2606.95009750765,2596.51357769275,2584.57368132996,2585.90162391076,2575.10457404057,2564.34925903996,2553.7300983651,2524.75351813665,2508.9876584797,2539.38568190555,2533.05632986816,2521.31604393551,2511.00452415347,2504.13953726094,2497.15466000783,2493.00658225795,2496.1251173825,2499.42183396801,2500.54923543291,2403.41668518581,2116.4642597966,2030.98649940309,1936.98014841335,1844.31843354011,1777.31012852148,1733.47930977705,1717.55069828462,1717.17907483905,1702.26298839228,1648.98283144166,1603.4329885598,1611.53027382979,1585.73715728532,1594.63141344996,1680.29237518562,1718.33719427305,1707.57606647166,1653.30414584328,1582.73060024752,1561.27269761931,1552.80420414265,1510.1566202537,1396.55907544563,1262.91967239404,1146.68211995382,1109.37684082148,1104.2874301221,1118.48123889662,1076.89798627048,881.098351573555,720.898650402897,589.826168511461,482.585046232435,394.842309784421,323.052798083767,264.315924911532,216.258483296498,176.93875840914,150.378499871307,146.029727183239,141.864939803163,134.091211188901,127.968012314894,122.886103803567,115.609177963552,109.84331159297,105.163900400898,101.864057763523,95.3648123428786,87.1816036141167,83.853701310804,80.2956211526735,74.3079663179443,70.058553153289,67.8865428435574,64.8484348846783,59.93790693694,55.9683639153157,52.5799795523451,47.9939049881436,46.4922181916214,42.4419047689855,40.1907508295641,37.7639105736349,33.9420554770203,31.1422256416563,25.4800019931699,20.847273498127,17.0568601348312,13.9556121335467,11.4182273680883,9.34218534256753,4,4,4,4,4,4,4,4,4,4,4,4,4,4,4,4,4,4,4,4,4,4,4,4,4,4,4,4,4,4,4,4,4,4,4,4,4,4,4,4,4,4,4,4,4,4,4,4,4,4,4,9.93419364991522,12.1417931059024,14.8399702487881,18.1377423871394,22.1683527448114,27.0946543894984,29.5464904096523,4,65.9335755025083,72.4014677052553,59.237564486118,4,4,4,4,4,4,4,4,4,4,4,4,4,4,4,4
2630,2629.8689945922,2626.71178050251,2615.10773197114,2605.92605453287,2595.97759949876,2581.82272902936,2582.37815454623,2572.1900786021,2565.25175773748,2555.50700749355,2531.83657907247,2513.76718477121,2530.37627298877,2527.0305125375,2518.34408373174,2508.52569316575,2502.09986992087,2494.75878080191,2489.40139623954,2493.98222648357,2500,2490.43739128974,2390.99983404578,2128.26405666665,2026.4261925944,1906.18205781643,1833.33101202221,1775.34028693156,1737.12883761719,1719.68244010371,1715.38806045156,1702.77720300444,1695.23752977029,1629.28210833578,1604.14371776272,1571.41125373813,1576.01555364994,1670.40101662536,1719.3548081691,1701.87269300401,1653.30389831119,1575.52809652167,1503.85296689022,1511.2599225509,1508.1520829869,1370.88985773979,1245.21187625414,1084.51525784595,955.392242748561,926.780847901566,958.700915726447,1039.96533323077,952.077589364583,788.82539543548,645.402595404714,528.056668967493,432.0463648077,353.492479584922,289.221118768966,236.635459930952,193.610830064713,158.408860302727,148.259597957056,144.450700183824,136.967486186152,129.061979130978,123.752061323925,116.34791025318,111.047496574562,105.693873449593,101.336711106654,95.020829670569,87.3495971555101,83.0352129808498,80.8113106849495,73.7510820966174,69.7616789104896,67.8038800950116,62.964253488618,59.6837590929285,52.6784642885861,51.4904704112244,48.7539042223021,45.3866739687652,41.1493754772259,39.7173513521995,37.9119359775793,36.4864161686526,30.0827771705514,24.6131804150228,20.1380567032004,16.4765911059897,13.4808463687203,11.0297825742905,4,4,4,4,4,4,4,4,4,4,4,4,4,4,4,4,4,4,4,4,4,4,4,4,4,4,4,4,4,4,4,4,4,4,4,4,4,4,4,4,4,4,4,4,4,4,4,4,4,4,4,4,4,9.93419431237206,12.1417938549159,4,27.0946542397047,4,36.1123778956648,44.1373507613681,53.9456518148725,65.9335754500567,69.9741275586587,4,4,4,4,4,4,4,4,4,4,4,4,4,4,4,4
2627.26871272105,2624.62843412695,2619.81899352841,2611.88927810283,2605.28447650936,2594.78152429959,2580.44776346399,2576.3966956576,2569.48414292099,2563.65580759163,2554.36679986166,2536.10067567596,2515.2421329074,2520.06211722716,2520.01825550975,2514.56847601834,2506.46322417454,2500.1493727305,2491.37395079629,2485.79530527533,2491.52889553018,2499.10422692859,2476.01611506489,2374.03990623754,2129.91698593893,2015.55755661796,1866.07004586028,1813.09246593492,1765.77325020831,1737.02747545184,1718.17631561678,1711.47017347496,1702.69923973475,1713.18273600256,1619.79617154439,1570.19191694195,1548.9217030903,1569.62139429438,1682.14768878152,1725.88274337422,1702.6617617698,1678.02268263837,1607.85839810788,1498.64054970457,1484.69749927695,1483.13082065826,1364.72293302187,1238.0283882747,1112.21258054723,997.475031628921,881.9920194522,784.391658321639,868.384165197972,840.007455499384,706.692859484356,601.010142896786,535.018603678163,446.36607902437,406.576344974975,332.653372241506,272.170940924868,222.685314544001,182.197074681058,151.0505649872,147.673790313106,139.122141862876,129.891918739356,125.739227714305,118.274192965548,113.456208786504,105.682201048703,101.041654042494,95.4878837863489,88.3247060562913,84,79.0900750932801,72.3844627278868,69.8849363507834,67.7904988416191,63.8431138134579,60.3804758759493,54.9763003859058,49.3976555581184,47.7060179482251,43.0993746400457,40.924466769965,38.7070182511225,35.6229478577108,33.9843483823561,27.8053751534064,22.7498515477213,18.6135149026811,15.2292387694481,12.4602855328148,10.1947783938396,4,4,4,4,4,4,4,4,4,4,4,4,4,4,4,4,4,4,4,4,4,4,4,4,4,4,4,4,4,4,4,4,4,4,4,4,4,4,4,4,4,4,4,4,4,4,4,4,4,4,4.45176028201754,5.44104107233798,6.65016203888967,8.12797654149635,9.93419429524041,4,33.1156893014696,4,29.5464902767743,4,4,79.6261906366367,65.5231658097055,4,4,4,4,4,12.4858804522979,10.2157197642537,8.35831559700857,4,4,4,4,4,4,4,4
2623.28405624971,2619.61481930424,2615.3391828645,2609.97014674672,2604.38982591998,2593.58521588878,2579.31494050593,2573.10667713824,2567.43426788698,2560.81286006902,2553.40866670325,2535.8626837937,2513.82343195021,2509.28578419186,2513.02507958178,2510.80629119975,2504.00895717073,2498.50095360364,2487.63625442645,2482.81835152047,2488.31787637778,2493.8656170715,2456.40995901507,2351.48977980711,2116.60039529538,1973.77811133162,1789.38104222197,1783.94184694293,1750.49618084167,1733.39988481959,1714.43219236217,1703.55090831237,1708.81946624479,1669.21726389676,1537.95303257706,1511.95136332353,1518.8732402698,1578.31633779047,1710.08844514226,1734.25500652049,1716.18945101994,1704.42026798829,1684.28670605776,1557.88584616852,1452.19025127166,1407.79434583959,1374.22936742728,1234.93296244425,1117.59137001982,968.092447921931,843.860256158174,739.394213603064,710.496135161977,703.345359062678,602.462633239038,492.923972650122,437.742493918497,423.180179374673,493.17667168115,403.508185048044,330.143059557837,270.11704872914,221.004857280062,180.822155142319,147.94539890637,143.548975954855,131.405860757071,127.62698413701,119.13102667057,114.4055138988,106.289307116732,100.337046488064,95.3568577883105,87.2549654462768,83.1941634804922,78.0829148096563,72.9415465849079,70.1480904001782,65.344163742002,62.9927077001057,58.0313514662688,53.4878865052256,48.4977440914919,46.9040877556383,41.367886288568,40.2128234328207,37.4099681580685,33.9061813330827,30.7179513440866,25.9129565193796,21.2015091614123,17.3466885444863,14.1927451727616,11.612245420514,9.50092740698824,4,4,4,4,4,4,4,4,4,4,4,4,4,4,4,4,4,4,4,4,4,4,4,4,4,4,4,4,4,4,4,4,4,4,4,4,4,4,4,4,4,4,4,4,4,4,4,4,4,4,4,4,4,6.7968413321766,4,4,33.1993690303765,4,35.6824950072875,43.6119393287804,53.3034822761492,65.1487005597379,53.6098621853848,4,4,4,4,4,15.2605213328451,4,4,4,4,4,4,4,4,4,4
2617.33821111578,2614.94050530912,2612.34294805097,2608.83993257892,2603.19801354085,2592.74659133165,2577.51376178246,2571.36685068085,2565.0103928783,2558.34398918197,2549.277778134,2528.91998327267,2510.66599810724,2500.57644927243,2507.03908461848,2507.24433214673,2501.79823637438,2494.33796105289,2483.33570486834,2479.88429468009,2485.30294110862,2486.23459680443,2434.80235736254,2321.30125635115,2092.14054519983,1908.86790196502,1707.87282657929,1740.90674172071,1733.29969156098,1727.76312485553,1709.59092964586,1699.21502925599,1708.7601036033,1585.15837058457,1478.85208059322,1478.53181996088,1503.5199373279,1607.25280978898,1708.48143278557,1734.29728634889,1714.97603874567,1710.46403154102,1716.94918994512,1651.39219558893,1482.07676012568,1373.49246664196,1321.74290805479,1218.30109346587,1088.53356176503,937.074468898116,849.787075218099,864.760077304874,808.046511114962,688.653049572184,594.431994582651,486.353450113078,432.1985640597,491.957502214372,586.306189831331,479.705063637572,392.485960332463,321.124876635651,262.738534749114,214.967891349439,175.882819528633,146.277952243756,134.798520103247,129.315656431127,119.341591220142,115.41145667719,108.865671100404,100.682473540775,94.684977160381,89.0293775342824,83.2636659943346,78.6152465146664,69.443392595966,71.0191872045279,64.7947816052868,61.5336646057824,56.7915034255236,52.3043726367813,47.8675859024705,44.5906177505149,41.2735373296664,38.772210476744,37.3807530305377,33.2266903732398,28.4255464888751,23.2572643108505,19.0286698668536,15.5689108541702,12.7381997897756,10.4221627642882,8.52722343197122,4,4,4,4,4,4,4,4,4,4,4,4,4,4,4,4,4,4,4,4,4,4,4,4,4,4,4,4,4,4,4,4,4,4,4,4,4,4,4,4,4,4,4,4,4,4,4,4,4,4,4,4,4,8.30725051710473,4,25.0131121902662,27.1631201157626,4,4,45.2112640718017,55.2582116433132,53.6098633752758,43.8626145153148,4,4,4,4,22.7965831106027,18.6517491159952,4,4,4,4,4,4,4,4,4,4
2611.13564944062,2609.9561109349,2609.74865885737,2607.50900477425,2601.8077942752,2591.19320996184,2575.63538071658,2567.70361324421,2561.78210638574,2555.2925450673,2544.07250770169,2522.2547638907,2507.44605353038,2498.7588754944,2502.06965694557,2504.06440289447,2499.58458418524,2489.23256736449,2477.98176124016,2474.67415783645,2478.55754308892,2477.48892452261,2412.2493066668,2290.16430656367,2048.20331683612,1834.97386663796,1691.32533705933,1713.30513744671,1718.44945974281,1722.91348765253,1705.81359596079,1698,1702.13364373905,1533.3567882809,1457.97908590289,1467.19440705465,1551.13342992978,1649.45466402891,1705.28716840571,1721.90707643875,1691.02215766077,1686.41655987185,1708.34665006142,1711.33242678278,1572.82505779295,1384.71266337662,1278.07630368095,1185.19880807543,1056.40835556316,937.490150094851,908.031403181681,922.740525814282,853.119446983243,706.619052380397,583.40177350459,500.64101905318,450.660910682238,550.807780338113,673.209509302139,557.621745595544,456.235972723796,373.283977683106,305.414162780218,249.884314019031,204.450801384321,167.27792759799,140.747776647015,131.705993036845,121.641422272991,116.098666749592,108.818082161863,103.245566295504,94.5549334554866,88.8596602428515,83.0213247011919,80.0241682102453,70.714219616693,67.9871879215861,63.959935628405,58.9644940327379,56.0233063128328,51.2309982290775,46.1539095028962,43.4671236909423,41.6429634820735,37.2096629294536,36.394749499733,32.1527110622872,27.1245972651413,22.1928513430793,18.1577874625194,14.8563707702842,12.1552114905281,9.94517216659379,4,4,4,4,4,4,4,4,4,4,4,4,4,4,4,4,4,4,4,4,4,4,4,4,4,4,4,4,4,4,4,4,4,4,4,4,4,4,4,4,4,4,4,4,4,4,4,4,4,4,4,4,4,4,7.64020940090404,4,30.5715815658809,4,4,4,51.913868712711,49.007195645541,4,35.8875930808347,4,4,4,34.0541569469319,27.8624913398229,4,4,4,4,4,4,4,4,4,4,4
2604.33145656631,2605.06446596035,2606.3728208024,2605.87723036808,2600.20532945585,2589.16906285947,2575.15676216948,2565.66556626334,2560.00820453283,2554.0030913466,2541.70962531063,2520.90609878049,2505.03991270727,2498,2499.21214437157,2501.43128021013,2495.98674037786,2483.10234440764,2472.72302859453,2471.05013271134,2471.76101153925,2469.26426709296,2396.50638638944,2246.84804539574,1978.31447239942,1759.07689781973,1693.55370981026,1701.66069620451,1710.17943258168,1718.99404077714,1703.35936279305,1698.18081345944,1683.98916438903,1477.100468269,1447.14418290591,1472.35198326496,1613.7628066189,1668.6633989965,1700.76869142378,1709.3543610067,1625.60967261022,1630.4008670893,1676.74014767914,1721.41180172502,1663.32935680696,1453.48586266911,1315.72175313379,1164.11260036002,1081.70932359651,946.493836277073,832.034965470957,805.398164505662,724.061805173122,663.488347428934,590.743507054858,577.415855258669,521.135078595428,571.437078553597,670.704047121279,548.757856735592,448.983700279093,367.350299755365,300.559335300511,245.91218249556,201.200875706435,164.618897551321,143.216070702839,135.939611920091,121.396814214546,118.965739485417,110.555659079675,102.674273301487,95.5904333112549,88.3253101376761,84.0062473442063,80.2358151809041,70.4399378762189,66.9815665981965,63.7761362382124,58.8449788325813,52.9181919391957,50.7920734399455,45.1026897378816,40.9546569224379,41.0519454183167,37.1383405075768,32.7943706708759,30.0025804592095,24.5475650212209,20.0843705163119,16.4326667860734,13.4449084805903,11.000378920586,9.00030933613296,4,4,4,4,4,4,4,4,4,4,4,4,4,4,4,4,4,4,4,4,4,4,4,4,4,4,4,4,4,4,4,4,4,4,4,4,4,4,4,4,4,4,4,4,4,4,4,4,4,4,4,4,4,4,8.40712748905372,4,28.0252067524435,4,4,41.2052951381052,49.2171426142573,40.2685712298469,32.9470120411836,29.3625754142348,27.212084358242,4,4,41.6217482123464,4,4,4,4,4,4,4,4,4,4,4,4
2599.75352847708,2601.38380295374,2603.75352847707,2604.09502095952,2599.05696219052,2586.56769552475,2572.73007683972,2562.58489400954,2557.57783700638,2552.676348723,2540.4964256046,2519.77467708577,2503.34648531277,2496.56019116536,2497.03431824625,2499.09889440653,2490.8309079394,2476.9723210094,2465.78373538602,2466.73715433884,2465.19467830069,2460.27624724824,2378.75180462704,2179.74262651099,1897.48304585773,1699.79909076063,1689.5926612637,1698.02083109482,1707.5862167299,1715.26961664221,1702.1187160626,1699,1644.50097574063,1450.24042014444,1442.55492826256,1481.80512546737,1611.99903533213,1657.14021583982,1676.61744456022,1668.88825168993,1581.20149590283,1589.76460637042,1618.97510507916,1704.38666524997,1722.59351326321,1579.95528237253,1418.95053947837,1275.60963847448,1200.80942535638,1023.16203891551,881.563314779808,798.141104565792,750.851503476974,702.967697559472,667.321110082191,688.044996615283,636.942874765916,698.423096009952,775.538910689253,634.53183601848,519.162410568639,424.769244515108,347.53847188086,284.349657834916,232.649719123795,190.349769402207,171.963094893334,141.094310158061,126.801910699687,117.267962300715,109.635247538486,102.063113326803,94.8205924259393,87.5290932891456,84.5623154096743,79.3255831293072,71.7663074634618,66.5422854409018,62.806741503826,57.948989933263,54.5774490320119,49.1078522977467,44.7841162301123,41.1468919381852,39.0844245908154,36.8900449555687,34.0249078461845,27.8568996089194,22.7920078783464,18.6480054919401,15.25745903886,12.4833747961201,10.2136694654138,8.35663789248644,4,4,4,4,4,4,4,4,4,4,4,4,4,4,4,4,4,4,4,4,4,4,4,4,4,4,4,4,4,4,4,4,4,4,4,4,4,4,4,4,4,4,4,4,4,4,4,4,4,4,4,4,4,4,10.2753789643883,4,22.9297137508066,25.9963255600212,4,39.1834140646926,41.0185491149789,33.5606304636382,27.4586976520677,27.2120845866761,33.2592149240103,4,4,50.8710264917201,4,4,4,4,4,4,4,4,4,4,4,4
2597,2599.90427823604,2601.22339547592,2602.34480116872,2596.65605082534,2583.78857944062,2570.91595700502,2556.79097550209,2554.17409527216,2552.59884086561,2540.32265688891,2518.73829898647,2502.27778304064,2493.84608418968,2493.03020553162,2495.28804699701,2485.41740849068,2472.24664814235,2459.79757430845,2459.13653072455,2458.50411823559,2449.68073422381,2347.22007059305,2134.08867183761,1825.36258786007,1684.88058012134,1692.96148017045,1698,1706.73482779314,1711.23657204981,1703.48600816789,1698.17664932134,1598.96197115716,1439.6303572553,1439.6981001345,1480.99761157078,1553.21072201803,1616.4639441956,1644.78499219375,1634.04079545416,1583.64752085897,1568.93965742915,1577.55373358276,1610.08582260207,1699.24163328558,1698.41603930403,1575.43618179369,1436.85529254353,1291.10591178582,1145.62727713856,977.424739104507,892.222064257086,917.707393138524,859.182742244745,778.203308662538,756.010565568985,778.485736650027,853.628229179773,798.109663132502,702.515807544375,574.785659843715,470.279175298417,384.773870698705,314.814984345351,257.57589546787,210.743913717777,210.177115980741,172.448601304297,141.757615333626,122.899379143656,109.858357050679,101.123544679433,94.4401527970963,88.6268036559133,83.1554146102122,77.2646818206437,74.6114391686207,66.8236042406626,63.3943516953472,57.325054498209,53.0642878908392,50.6687359950642,43.9741880089101,41.6966462033799,35.6248986712751,34.7398357637176,31.5292268776106,26.164161452008,21.4070402529659,17.514851116063,14.330331965654,11.7248161343558,9.59303053829047,4,4,4,4,4,4,4,4,4,4,4,4,4,4,4,4,4,4,4,4,4,4,4,4,4,4,4,4,4,4,4,4,4,4,4,4,4,4,4,4,4,4,4,4,4,4,4,4,4,4,4,4,4,4,4,12.5587975082578,15.3496423336818,18.7606739633889,21.2697199804679,4,40.9376043446437,50.0348497545646,4,4,33.259215224357,40.6501527335085,4,75.9925221541542,62.1756990454357,4,4,4,4,4,4,4,4,4,4,4,4
2596.20596317432,2598.01949728476,2599.10696222816,2600.53673003066,2593.74058659151,2580.29388066792,2570.16800946334,2552.78347997338,2552.1239763905,2552.97860013117,2540.14809059106,2518.56814657848,2500.76308978013,2489.75488239788,2487.06335546772,2489.55720242995,2479.3728071527,2467.71278766351,2456.34535305961,2453.46630363643,2456.12898569047,2441.92647378811,2283.48520803216,2085.77925181459,1753.09991699612,1697.61541390046,1699.33888745947,1699,1704.0804207304,1707.07887331415,1710.61555745256,1702.88635807002,1566.21715584464,1436.94188716405,1437.55030606276,1464.27445113702,1484.89377753894,1558.02767077827,1619.19480572753,1619.41245682219,1588.30140749384,1560.72535207828,1554.28703363067,1530.42864572058,1554.4062380007,1671.92378364966,1693.08778694862,1598.98547057105,1434.07140810519,1253.52619700767,1093.15395169277,1029.17969373222,1103.73082919927,1050.11224052135,951.137378288658,924.01291447327,951.4825670167,1008.14513588818,824.846020272148,677.639741824343,554.432516038099,453.62660330712,401.807595980238,329.891695810759,311.573242271006,255.185295377653,253.468479712679,207.383300682351,169.677246012832,138.826836906889,113.585592999776,102.346641446485,95.1347979344659,88.8766435823258,83.1437194443066,76.0144965663991,72.5987939150174,64.8876463157696,59.677220173418,54.9012936210157,50.3448616292666,43.9095354945084,40.4426324222616,42.0161271844985,40.290608225279,34.9074332384329,29.2827198484585,23.9585881319193,19.6024803063749,16.0383929779431,13.1223207965987,10.7364435187624,8.78436216694488,4,4,4,4,4,4,4,4,4,4,4,4,4,4,4,4,4,4,4,4,4,4,4,4,4,4,4,4,4,4,4,4,4,4,4,4,4,4,4,4,4,4,4,4,4,4,4,4,4,4,4,4,4,4,4,4,13.2484772567252,16.1925833137752,17.4024981658374,4,33.4944035547085,40.9376043446437,4,4,4,49.6835200076215,4,92.8797498985083,75.9925219266237,4,4,4,4,4,4,4,4,4,4,4,4
2597,2597,2597.53931573145,2598.69213899651,2589.58211755925,2577.12860519682,2571.45767388897,2552.86415351863,2553.5125738594,2554.32770255204,2541.12103074613,2518.65124337457,2499.16243525523,2484.03361391234,2479.17688682591,2482.70480001499,2472.85620180823,2461.74762536121,2452.23568225157,2449.43733535713,2452.18115960157,2433.26059870369,2188.75152787675,2029.72070129091,1709.150597407,1700.41734712162,1700.90023244001,1699.26143752166,1700.26155953212,1705.19735896709,1719.28186985919,1719.78341296026,1545.11078274874,1438.05382462063,1438.56605291973,1456.56362698071,1468.83421779594,1507.40385975476,1592.34216530483,1608.89705945131,1587.25394518764,1554.00517265327,1538.46776073946,1478.81551051588,1388.83319624633,1472.59552159123,1622.39183889006,1642.37477896078,1582.32175418637,1380.9343209551,1221.23597390136,1188.48165494056,1265.01903792395,1283.47051714999,1162.50124013058,1129.34911823959,1162.92313847323,1111.15294853201,909.125139708008,779.21022114427,658.55705086076,538.819405249713,491.098173936278,403.200962709202,380.811740553452,311.893138794909,281.627589875762,230.422572572457,188.527559377465,154.249820518333,126.204397645849,103.258142654068,95.7028852743498,85.877426331592,84.1338193688807,76.230369525102,71.902400353719,63.1984027610556,60.8544874420564,53.9273639885404,49.3257069260656,43.6054671106042,42.6271797584044,41.5203775539418,37.354963350529,33.476981252099,27.3902564734358,22.410209841902,18.3356254852111,15.0018744885938,12.2742601190379,4,4,4,4,4,4,4,4,4,4,4,4,4,4,4,4,4,4,4,4,4,4,4,4,4,4,4,4,4,4,4,4,4,4,4,4,4,4,4,4,4,4,4,4,4,4,4,4,4,4,13.1746108998182,16.1023030262964,4,4,4,4,4,4,4,13.6222883963318,14.2384068274426,4,4,37.5893685900673,4,4,4,60.7243032003253,74.2185938670193,90.7116157267364,92.879750075232,4,4,4,4,4,4,4,4,4,4,4,4
2598,2595.26627334063,2594.71034984508,2593.62473412106,2585.41850920754,2573.82963270071,2567.21485239962,2554.57558499152,2550.13851785752,2553.38165486308,2543.23002779268,2518.58803746683,2497.40635917038,2476.61985626128,2469.91308732472,2475.85349007075,2465.06987760541,2453.75983941319,2445.88522797821,2442.2847166854,2442.39792098763,2422.1520587761,2124.58018487506,1943.49855271489,1696.14655891407,1700,1700.91348338226,1699,1699,1707.91158191666,1724.93977757089,1724.01149902616,1514.48770081055,1441.47236334717,1443.66680123463,1457.05091090988,1468.81071189472,1491.06794101265,1563.70948631375,1596.27508672543,1581.14704491543,1550.15070322715,1528.67787681336,1434.11842698783,1284.03487220882,1279.86183630935,1415.36390074137,1614.64625972238,1659.37439943148,1606.25219145575,1418.41955826949,1386.31331367755,1467.82265770697,1457.69583238364,1395.659389613,1380.3155889595,1294.93627542238,1059.49331625467,970.703525380551,822.546853218452,804.903062762548,658.55705086076,600.231102067028,492.801177284084,453.880613880736,371.356865004795,303.83743401129,248.594264191056,203.39530624972,166.414340596996,136.157186930484,111.40133405107,95.4072034019004,88.2917473685057,84.0036994043916,74.9645168927653,67.4714841766295,62.1865640451666,58.4102243030944,52.7457940029685,51.5576234098782,44.5923184910322,43.3831417559659,37.9142505235751,35.3681563437838,28.9375815726288,23.6762021530683,19.3714381252377,15.8493576865942,12.9676554683333,10.6098991690372,4,4,4,4,4,4,4,4,4,4,4,4,4,4,4,4,4,4,4,4,4,4,4,4,4,4,4,4,4,4,4,4,4,4,4,4,4,4,4,4,4,4,4,4,4,4,4,4,4,4,4,19.6805934187518,4,4,4,4,4,4,4,4,11.6496047289372,4,4,30.7549371406446,25.1631295019258,4,4,50.8451005377832,62.1440117684017,75.9537932612587,92.8324150218826,91.9690113646381,4,4,4,4,4,4,4,4,4,4,4
2598.86860131035,2593.88574774187,2590.6173166607,2587.48213727403,2580.90858493632,2571.30529193408,2563.90449399767,2554.07246117425,2545.16789548938,2549.70022356736,2541.87527630123,2517.92793269757,2495.06894745124,2468.68226910268,2461.18710275213,2468.59940060005,2455.92695403341,2443.07965875926,2438.34702322274,2433.34814974685,2433.76980816749,2372.9282566951,2066.07102673214,1876.9293343625,1700.35720419556,1700.04847877763,1701,1699,1698.76501939203,1714.12393340922,1727.49716404756,1706.64680859398,1486.4205598171,1445.27663083169,1452.41751634629,1464.15306885475,1478.70436964278,1494.68735670951,1548.84838107188,1580.36962725611,1574.19131397299,1550.57138270476,1521.91146168634,1415.9482005581,1223.67411518088,1138.35926630216,1199.27524698371,1430.06811747208,1636.385446098,1673.19991935964,1636.40043862883,1564.36188117943,1521.40183678363,1514.39991784478,1506.74151950199,1440.78136422429,1178.82111618351,1087.41863450276,1108.43015479801,1005.33504282255,983.770410043114,804.903063252972,733.615791415256,602.31255001388,513.632169090284,420.244501149575,343.836409163502,281.320698406502,230.171479801164,188.322119100538,154.081733019924,126.06687171962,103.145621617068,85.637900135735,84.0161976722589,75.8635445389038,65.3067256507417,62.6970821684976,56.8968577864711,49.7609702570452,43.8411512962295,41.5887379305197,37.4973008151664,33.6766501674194,32.2437934275111,26.3812846669849,21.5846865306288,17.6601980705144,14.4492522099057,11.8221146475964,9.67263851957775,4,4,4,4,4,4,4,4,4,4,4,4,4,4,4,4,4,4,4,4,4,4,4,4,4,4,4,4,4,4,4,4,4,4,4,4,4,4,4,4,4,4,4,4,4,4,4,4,4,4,4,24.0540586229189,4,4,4,4,4,4,4,4,9.60540563940563,4,4,25.1631304285178,20.5880150470302,4,4,41.6005360653456,4,83.8090335869364,102.433263272922,112.406569445669,106.055256054115,4,4,4,4,4,4,4,4,4,4
2599,2592.31236819556,2585.70923590137,2581.32177756157,2576.47682070104,2568.39674010593,2561.41473612098,2553.97389938159,2536.60513015043,2541.12186174261,2536.68566334177,2515.28248000569,2491.91597167787,2461.50721883872,2451.8531567027,2456.83051946242,2444.96882327351,2431.39622006314,2424.32551473856,2424.31154815971,2430.29935213805,2293.88051438625,2021.25404107359,1798.83259574069,1701.28623653318,1701.72343345872,1700.68898289909,1702.06848509943,1702.22665302692,1721.86514262889,1720.96925368172,1655.47713371399,1468.34587816383,1451.07146251004,1462.54521316498,1475.95919718967,1492.17689598897,1507.13398481066,1545.10786835087,1567.7369468966,1567.61058189588,1550.07498060559,1514.88444049526,1411.60355647462,1248.26235152813,1055.33089407795,1005.44397932993,1204.66679098974,1472.3705223208,1617.53553090045,1609.90584900911,1559.69316266587,1515.31177379073,1519.85208589552,1510.45766758797,1500.93423075669,1389.63392621119,1329.06721994782,1330.60626239284,1206.94512179849,1184.03956525273,971.924513189902,812.735075955228,664.96506130288,544.062321973722,445.141899796681,364.207008175864,297.987551348985,243.807995682666,199.479268326875,163.210309616171,133.535707098493,109.256486920999,89.391670461787,81.4571408385978,73.0752821916394,69.0276972120778,60.9797423003831,56.5733710580002,50.1250460010266,44.4770952687799,39.5151845300885,33.7337428865251,33.6264610945176,29.4037191475906,25.5652518666154,20.9170234329064,17.1139282632871,14.0023042698212,11.4564300097586,4,4,4,4,4,4,4,4,4,4,4,4,4,4,4,4,4,4,4,4,4,4,4,4,4,4,4,4,4,4,4,4,4,4,4,4,4,4,4,4,4,4,4,4,4,4,4,4,4,4,4,4,29.3994059993207,25.8610743955359,21.1590602052715,17.3119575491254,14.1643280118438,4,4,4,4,8.72589014896953,4,4,4,16.8447388591147,4,4,34.0368014632161,4,70.0155692230994,85.5745852907474,104.591159799802,127.833640590921,4,4,4,4,4,4,4,4,4,4
2599.56479173546,2590.88766109258,2581.83610782812,2576.13437963393,2572.33371777485,2564.70569538271,2557.24771416964,2547.97026067952,2525.1888007119,2530.320646144,2528.80332586915,2510.4725453057,2486.64266786196,2454.56466751569,2440.6729926078,2442.25830009952,2433.81966784121,2419.40147217357,2407.9791311839,2417.05404453388,2430.18577257006,2254.14975560695,1967.64133447032,1754.68414360652,1700.31655614117,1705.01034230709,1698.82292790624,1706.99933922457,1714.10669306889,1725.76767137868,1699.40715237096,1590.32496479278,1462.14806540344,1458.80428608521,1475.11381065535,1488.91800816684,1502.3147059989,1519.39693547972,1543.95554057556,1557.06990585837,1559.32584327445,1546.79879140024,1520.6390599879,1416.5845974816,1242.41893211959,1016.52458082512,893.236048458948,993.014538646286,1213.57454223719,1447.07760454885,1498.12396844256,1510.38922932405,1493.54380270463,1462.12849466161,1451.31803222519,1409.35806789035,1397.8037829537,1403.65086842714,1358.97965051329,1275.55631960204,1261.1973281586,1108.59131924454,907.029260318607,742.114848484416,607.184875157168,496.787624247944,406.462601657409,332.560309723078,272.094798136841,222.623015928126,182.146103223751,149.028629224242,121.93251416701,99.7629655166311,81.6242439264746,73.1402792703182,65.5927943846822,58.5222124842647,53.7874948890851,45.9082171263156,43.7972235393524,38.5013350774324,37.5804895127566,31.1233546990676,26.5604243335635,21.7312555191862,17.7801181520614,14.5473687798144,11.9023919439919,4,4,4,4,4,4,4,4,4,4,4,4,4,4,4,4,4,4,4,4,4,4,4,4,4,4,4,4,4,4,4,4,4,4,4,4,4,4,4,4,4,4,4,4,4,4,4,4,4,4,4,4,4,35.9326083716264,31.6079799966736,25.8610736740444,4,11.588995646054,4,4,4,4,7.13936381018916,4,4,4,13.7820582790516,11.2762285546425,4,27.848291277107,4,57.2854651559243,4,127.833640551177,156.241117092058,4,4,4,4,4,4,4,4,4,4
2600,2589.31624651874,2579.9099180611,2573,2568.92205186152,2562.81719389284,2555.34640655863,2543.74666111879,2521.33434003824,2521.41381057169,2520.64408729997,2504.39058570543,2479.03409910363,2448.51422554793,2434.80867661917,2431.44984538439,2422.67135466989,2408.78564003735,2398.58713518503,2411.78051746909,2425.97435745213,2241.65694457095,1895.07895855455,1737.13035617413,1700.22082651902,1709.26240336294,1704.26876676474,1682.41678525036,1713.01220657717,1721.07642041902,1680.04554946446,1526.94706564346,1460.68611146348,1469.19415025422,1488.77629034323,1498.77252170428,1507.87043613008,1523.40497606315,1537.94025226587,1544.47811924832,1547.66212947701,1537.68324059511,1512.85767547861,1421.20633997035,1220.20490096924,998.349464429382,835.930581849907,812.466440710597,992.924625466792,1193.93976526866,1351.47260615,1463.28324050487,1458.12971185433,1373.01221387447,1361.37853450169,1315.43969651189,1323.9232614326,1299.00593340084,1337.12038175074,1296.78012082951,1261.56469717054,1067.68125157051,873.557386757175,714.728770020342,584.778083571312,478.45479467104,391.463012877395,320.28791872493,262.0537508277,214.407614313573,175.424411007832,143.529062879314,117.432868988599,96.0814376556313,78.612084779071,73.3380610490096,66.7417901576218,58.3644027892413,52.6237025428376,44.5743556845189,41.0242995067942,36.7485495709165,31.6359011771297,25.8839191449243,22.3910534501738,18.6685384721786,15.2742580332799,12.4971202090472,10.2249159477276,4,4,4,4,4,4,4,4,4,4,4,4,4,4,4,4,4,4,4,4,4,4,4,4,4,4,4,4,4,4,4,4,4,4,4,4,4,4,4,4,4,4,4,4,4,4,4,4,4,4,4,4,4,43.9176335335109,4,4,4,14.1564645781467,16.7820065397,4,4,4,5.84129766288204,4,4,4,4,9.22600440564552,4,22.7849648024874,4,48.3840000177055,4,4,190.961366308125,4,4,4,4,4,4,4,4,4,4
2600.42001205947,2586.89003779662,2576.73933816887,2572.31563008295,2565.95132421792,2560.14589762245,2552.51529691669,2540.38968052529,2521.11511121386,2513.86986618343,2512.02652255409,2498.31946739125,2470.8518416941,2445.08240905946,2431.95287098011,2422.84128559276,2413.16560715441,2401.44302638741,2394.26215283147,2406.75740555542,2412.08945605605,2221.24544751529,1846.80155968875,1735.01154456431,1705.38045355137,1713.2925542407,1711.99288328671,1587.48385641777,1678.35979557094,1708.37509128862,1672.01694226579,1486.49845883977,1462.43137208593,1480.26060548021,1498.94663522815,1502.30782650508,1506.86688502537,1520.22868683485,1525.84645238131,1528.04762465127,1533.33788653037,1524.86881926278,1496.21536299709,1420.86188079943,1192.02830071709,990.625403267615,839.784280844814,742.824940444157,812.392874429266,976.859807947089,1174.9078664498,1364.99106687697,1406.72560473466,1308.25685252737,1261.87508710633,1238.23376221073,1292.90128757526,1144.94620335083,1261.91789956624,1195.77564780271,1178.43092912068,1020.0455278102,834.582703709662,682.840393944269,558.687594335614,457.108031004352,373.997478985203,305.997936378929,250.361946952766,204.841592012944,167.597665320711,137.125361752227,112.193477096127,91.7946624390024,76.8946600627784,72.9532457098845,62.7030934231089,57.7231464837874,48.7976761711302,42.9898912384196,37.9261792834218,32.7441084725544,27.1137003101667,23.5455594019283,20.2607791283205,19.1655630708686,15.6809145246365,12.8298391565208,10.4971405423594,4,4,4,4,4,4,4,4,4,4,4,4,4,4,4,4,4,4,4,4,4,4,4,4,4,4,4,4,4,4,4,4,4,4,4,4,4,4,4,4,4,4,4,4,4,4,4,4,4,4,4,4,4,53.6771087781422,4,4,4,4,13.7307326233909,11.234235070939,4,4,4.77924284104364,4,4,4,4,7.54854839077452,4,18.6422432156752,4,59.1360008513075,72.2773352692538,4,161.288293031004,4,4,4,4,4,4,4,4,4,4
2601.12966759481,2583.03849575243,2567.77390400602,2567.86984703106,2562.14644648607,2555.97050122324,2549.1698877792,2537.36967914415,2519.93269494115,2508.56338234086,2503.69413762919,2490.27135792009,2461.88898550962,2441.9373262479,2427.59793693648,2416.11107249836,2405.41603439464,2397.43696575885,2390.33487553537,2401.07579600964,2399.92371748286,2191.02208650493,1863.83899961346,1747.00976018493,1715.66689790418,1716.85167788331,1691.4830277084,1569.11989320392,1619.12439648801,1682.53229120699,1653.45830145716,1473.62115909134,1471.06400652793,1492.78050244554,1504.53131625886,1502.15175795157,1501.3437949446,1513.60960018926,1508.56801558837,1510.29404258196,1518.72509671764,1516.27080402468,1491.71865153503,1427.94487827919,1222.21138815802,1020.78725996782,846.785976529293,730.24277241912,718.825251034038,813.362506809755,994.109730545256,1215.02300480367,1393.24156202644,1259.60821849209,1203.55905223298,1118.17224712398,1204.09201807444,1179.21443110596,1249.59123125535,1148.95581421843,1095.47163367956,896.294972172718,733.332249959496,599.99911291339,490.908364406318,401.652297248731,328.624605893843,268.874676582869,219.988370826834,179.990484373661,147.264940998245,120.489496497829,98.5823146936471,80.9321858324504,73.8251930173895,70.6324786676558,63.1539583334165,55.1793037299896,47.8464546076067,42.2042471735684,36.4981724266269,30.0194987405881,25.6387653809779,21.8922221146662,20.2590523375934,18.2433429104216,14.9263714721632,12.2124849868442,4,4,4,4,4,4,4,4,4,4,4,4,4,4,4,4,4,4,4,4,4,4,4,4,4,4,4,4,4,4,4,4,4,4,4,4,4,4,4,4,4,4,4,4,4,4,4,4,4,4,4,4,4,4,54.5538851006954,4,4,4,4,4,9.19164639570016,7.52043708040037,4,4,4,4,4,4,4,4,15.2527438080014,16.2195130868486,4,88.3389661802773,107.969847553672,131.963148048778,4,4,4,4,4,4,4,4,4,4
2601.98355721281,2577.9244037474,2562.79034963057,2566,2560.37595400469,2554.08570050849,2548.68995381322,2536.36590265126,2517.90997474752,2503.6405700685,2498.26417719149,2479.90983507969,2453.03034633295,2435.85778021313,2421.92957310328,2409.9981815726,2400.92360695185,2390.19206357746,2386.2715434935,2396.94923800098,2387.21602390833,2173.96268906713,1917.69074218338,1773.77308449291,1726.54101068068,1713.73988806597,1653.23653235174,1573.43173694908,1581.68816853693,1641.70630540225,1631.82665344545,1489.74946280428,1486.81187312355,1501.18001287891,1507.78562514631,1495.24115912875,1483.45207639848,1504.67814516101,1495.38079557679,1501.72298472027,1504.04582633269,1507.8063970501,1490.47897251998,1426.31355060731,1276.93492783653,1048.72483788861,858.047594636135,720.495842262447,699.48517772187,752.820087100249,920.113440342136,1124.5830937515,1329.03582021685,1232.68953305994,1115.87880502308,1030.4116146458,993.982663442917,964.811807268516,1022.39282463348,1050.09064626913,997.117851247028,815.823695631355,667.492114607472,546.12991125708,446.833563046401,365.591096129986,299.119986790306,244.734533673453,200.237344803814,163.830553985466,134.043179766399,109.671691848987,89.7313836131199,78.1000806642778,71.1701571365419,67.0631048266457,60.3476331977861,51.4504884750853,43.6164732318471,41.0100707209435,34.0990349561436,28.4806755437251,24.1554975451493,20.8328881779626,18.317653321254,17.7319157489348,14.5159928410148,11.8767214153757,4,4,4,4,4,4,4,4,4,4,4,4,4,4,4,4,4,4,4,4,4,4,4,4,4,4,4,4,4,4,4,4,4,4,4,4,4,4,4,4,4,4,4,4,4,4,4,4,4,4,4,4,4,4,44.6349969005689,49.9905871718441,4,4,4,4,4,6.15308394706285,5.03434052671346,4,4,4,4,4,4,4,4,19.8238503089783,4,85.6058264921158,104.629343490364,125.806907680586,4,4,4,4,4,4,4,4,4,4
2601.89764496153,2571.36517744566,2554.28135431841,2560.98359081386,2555.44664170998,2551.45251947645,2547.48455406522,2536.17877091315,2514.96586482127,2499.93992566308,2490.45300110171,2468.90600572999,2443.10173851751,2428.29992542026,2415.71477203392,2404.73130469708,2396.6823799035,2381.75365834581,2382.7538195463,2394.12097127757,2373.21141812223,2129.60668184111,1837.03408228866,1793.72790680775,1733.45613433647,1703.66085255453,1588.47214899968,1558.26912960468,1554.70052842336,1608.05015520872,1607.39072228058,1528.29435323097,1499.50496900888,1508.53180215294,1507.56746886449,1472.81103372941,1436.18489708243,1473.54036717316,1469.40143317564,1482.48263372487,1493.91445251532,1498.07432027475,1476.61258433094,1405.07216833341,1267.89268882995,1037.36674540632,848.75460940484,713.704646724183,689.59489034016,727.392098651036,889.034787240156,1086.59807402137,1279.06440850617,1241.90599818534,1126.29261837549,1021.89218963066,888.334115302291,789.391477824231,836.503220154667,859.165073348423,822.830658244634,673.225083123736,550.820522555784,450.671335899976,368.731092323369,301.689074866539,246.836514960017,201.957147770767,165.237665558288,135.194452899962,110.613642604608,90.5020705922869,83.9371487105522,76.4069809754579,70.5115524919699,64.7822445179456,55.8757740323726,48.5930566697421,39.7579554570617,36.7396522786441,32.7030005630486,26.9896754293983,22.0824617149622,20.9939079860834,18.7465162669571,17.3398545936536,14.1871537584438,11.6076704742389,4,4,4,4,4,4,4,4,4,4,4,4,4,4,4,4,4,4,4,4,4,4,4,4,4,4,4,4,4,4,4,4,4,4,4,4,4,4,4,4,4,4,4,4,4,4,4,4,4,4,4,4,4,4,4,61.0996065433651,4,4,4,4,4,4,4.11900513771657,4,4,4,4,4,4,4,4,24.2291512503084,4,91.477598781985,111.805954066871,102.932924465934,4,4,4,4,4,4,4,4,4,4
2601.54659834366,2566.94019774608,2540.37957503171,2551.41601392342,2548.93483813237,2547.13095139081,2547.9646390964,2535.97801099302,2510.5919450276,2495.46210868992,2481.67147539722,2457.66790245576,2432.79608914532,2420.42110433953,2409.50255850403,2400.11428693527,2390.98669781835,2373.34554602025,2380.16891298597,2392.21476892052,2368.08075158129,2067.60095435645,1718.84696432219,1779.00783963625,1733.54712698072,1680.450945912,1511.32497023537,1524.74122271991,1529.11721670225,1583.87682746667,1598.56473379427,1538.24753256811,1507.69011163554,1514.01057535821,1501.82692966588,1437.19455838937,1395.4814656187,1429.97116575267,1410.56194280133,1440.3640942531,1477.22677860328,1484.15922892457,1452.54846628351,1343.00268609163,1206.52634893703,987.157921284979,807.674662869528,713.19741470807,690.046694921197,709.259289505861,866.872464951608,1056.26298397912,1150.35738293331,1209.46909010757,1089.50518649693,985.152025723267,806.033474683114,659.481933831639,684.41172481275,702.953240906336,675.861472173531,552.977567266845,452.436190469463,370.17506492956,302.870506903681,247.803141208264,202.748023758883,165.884745886503,135.723882248485,111.046812073573,95.3325663799673,88.3454037400036,81.1018308163912,74.5294903364131,64.1622693802901,59.1154841533721,51.7079494237961,46.2606635490211,40.4687463155743,36.7676370683459,32.1001824923488,26.5323203764914,22.671751121692,20.5876999591321,20.0257927339096,16.542237703643,13.5345572393554,11.0737286503817,4,4,4,4,4,4,4,4,4,4,4,4,4,4,4,4,4,4,4,4,4,4,4,4,4,4,4,4,4,4,4,4,4,4,4,4,4,4,4,4,4,4,4,4,4,4,4,4,4,4,4,4,4,4,4,50.2272128398169,4,4,4,4,4,4,4,4,4,4,4,4,4,4,4,29.6134070837102,4,99.3716382489344,121.454224526475,4,4,4,4,4,4,4,4,4,4,4
2600.03458322131,2567.74401110745,2538.66373550389,2543.45027200904,2543.54406345268,2545.32853790523,2549.31120061437,2535.86452773949,2507.82857733916,2490.53229260496,2472.21745712755,2446.00734863017,2421.73704533789,2412.65138559338,2403.89531596741,2397.36361383029,2383.85366971501,2365.11226771515,2377.06502752812,2386.50621774748,2364.25797079457,2053.13214151517,1679.83538851241,1739.18605285828,1727.49569330189,1657.1487287381,1458.12566829752,1486.82502148163,1498.08350605555,1549.46167178566,1567.89071872284,1532.99585645207,1512.50282914642,1514.61699228659,1502.00948895362,1402.94951255077,1363.89590399083,1385.51983384111,1385.87868692399,1401.04814090857,1455.4934030281,1463.00877985371,1420.2387832226,1279.86285756643,1128.09798563987,943.626502007969,788.734806982023,715.690635580681,694.542736472268,702.74431644927,835.3356355245,983.201857977414,1023.724721708,1155.36861489148,1081.59124342486,901.65199849574,737.715271496515,603.585221316054,559.973228528866,575.143560741547,553.18165862156,453.147042484543,370.756670228348,303.346365689386,248.192480186521,203.066573878081,166.145378627521,135.937127293946,111.221285301778,97.7179395943076,89.0660940555246,84,77.7011646491932,69.6992487280846,64.0201840664156,54.3781927867662,47.657646094989,44.6179884519496,40.7522143788295,35.8202270664368,31.3164428563178,26.044087901416,21.3087991920676,20.4628097455941,19.4822777483976,16.4968494321975,13.497422262707,11.0433444976661,4,4,4,4,4,4,4,4,4,4,4,4,4,4,4,4,4,4,4,4,4,4,4,4,4,4,4,4,4,4,4,4,4,4,4,4,4,4,4,4,4,4,4,4,4,4,4,4,4,4,4,4,4,4,4,45.0421461090209,55.0515119110255,4,4,4,4,4,4,4,4,4,4,4,4,4,4,36.1941652800226,4,108.095010151236,132.116123518177,4,4,4,4,4,4,4,4,4,4,4
2599.09470273905,2571.79491498034,2550.26548637883,2539.0801414867,2535.20922499659,2541.46806374152,2552.95787063122,2537.09766415788,2506.04713999713,2486.46343604252,2463.64300014343,2434.62392801342,2410.51493289717,2405.83661465509,2400.10741673428,2393.3247079517,2376.22047788278,2357.59767235864,2370.47539402825,2374.53234529568,2357.8101791029,2087.66651352728,1708.09078379504,1711.4365704575,1724.79574374686,1637.3642670068,1406.23560224118,1435.82461526366,1457.77662864284,1510.35922152118,1531.83711878638,1520.76324645085,1511.74379965754,1509.99406270462,1505.7436279991,1421.40462878892,1377.00505490368,1296.31820610768,1303.15244318849,1368.7115947176,1431.21038330132,1444.21491955824,1382.07825634348,1249.13444684272,1073.70829029574,887.454493555574,774.690548473728,712.993584426338,694.568252800772,696.635430715796,764.023242326436,856.09920288697,949.957845927339,1083.98570041034,1011.78793019184,837.430719230865,685.170587582954,560.594117113326,458.667913276286,470.572003486927,452.603174275581,370.792027928612,303.41601121495,248.270550391644,203.131439783597,166.198450732034,135.980550089071,111.256812780001,103.959379410746,97.7805829415373,89.0211381590057,80.7389064627305,74.392767360685,68.4130266975855,61.4089688849232,54.0248915312773,48.0880890656035,45.3592939870543,39.7893347990383,35.6058770756724,30.0882876623376,26.0098924646034,21.9310154912598,20.1152242025789,18.6582721293869,15.4907002148441,12.6742086960853,10.3698071149789,4,4,4,4,4,4,4,4,4,4,4,4,4,4,4,4,4,4,4,4,4,4,4,4,4,4,4,4,4,4,4,4,4,4,4,4,4,4,4,4,4,4,4,4,4,4,4,4,4,4,4,4,4,4,4,4,51.9550952009935,4,4,4,4,4,4,4,4,4,4,4,4,4,4,42.9668841064666,4,122.949641856082,150.271784490767,4,4,4,4,4,4,4,4,4,4,4
2598.89296009766,2576.52732133101,2564.48508825773,2538.68887121868,2526.71134277694,2535.64456181383,2548.75076716197,2534.45050403012,2504.6878010747,2483.57710847644,2455.80686799156,2424.3121190407,2401.25653249583,2401.22556879396,2396.70220454933,2387.8552663004,2368.21039264384,2349.75692765544,2357.64264756635,2355.83383329146,2351.39068106222,2139.48460309403,1779.40689527053,1718.01576325595,1733.54845511665,1620.99918919467,1371.36039725679,1404.01131458668,1408.50348945905,1467.48008407951,1496.76302300384,1505.84598880948,1507.29543139043,1500.39599441419,1489.4587749544,1429.34684719478,1410.23203964072,1386.47774755788,1284.52407573372,1308.71544988634,1377.0563659312,1425.0071859153,1342.42044105988,1228.3625548108,1028.12328503531,841.191778665249,743.841847995676,706.164368370545,685.23902026028,677.667141515238,699.871752706024,758.543611054786,871.641917648385,986.26286999705,916.629169852806,749.969319946759,613.611261774621,502.045577119957,410.764562312725,385.013456607154,370.311688043657,303.375294849228,248.249462917172,203.130449425716,166.199513663888,135.981425540965,111.257529988062,105.759154065422,99.5599766292991,91.4039230032134,83.6048518570063,78.6656501688317,73.3837602348399,65.7703247734688,59.1414935094571,53.623105846761,47.0922593360878,43.0677541171972,38.3615941579604,34.2311486792039,28.9360620734337,25.5671695611593,21.0520967115134,20.3883165068237,18.0549911297551,14.7722645000337,12.0863982273003,9.88887048261493,4,4,4,4,4,4,4,4,4,4,4,4,4,4,4,4,4,4,4,4,4,4,4,4,4,4,4,4,4,4,4,4,4,4,4,4,4,4,4,4,4,4,4,4,4,4,4,4,4,4,4,4,4,4,4,4,42.5087142553583,4,4,4,4,4,4,4,4,4,4,4,4,4,4,52.5150813437169,4,117.188435798015,141.694160760921,4,4,7.9073448938914,4,4,4,4,4,4,4,4
2598.01528415333,2579.82251413907,2566.14530061281,2540.03748026371,2521.85177863357,2530.31479985696,2538.28420026476,2526.79352345615,2503.65267109486,2481.90183715786,2449.00959180982,2414.91585751571,2395.83430426166,2396.86625689572,2391.02818745737,2380.604547599,2359.4865976653,2340.71924068501,2339.27457318395,2333.2573006386,2344.4856725946,2151.74221883298,1874.1675564828,1761.73585568629,1744.6961407618,1609.84888006907,1361.3265702429,1400.18736942558,1386.51288983633,1415.75923731593,1456.9013857466,1489.31484605635,1500.88527776356,1487.05390395874,1467.42940303764,1421.77819592014,1376.80996782957,1383.54613319992,1282.49946008945,1194.35268227547,1290.0006265866,1380.3025071386,1322.21435165571,1201.26792808868,1007.5699209637,832.296478872526,729.698362158612,695.437944762315,655.467283059537,641.453994571181,662.444577599173,700.246418359413,807.148794579119,856.596451581087,764.222966336871,625.273335328075,511.587274359334,418.571405661297,342.46751300852,315.011009101134,302.982289431896,248.216150331187,203.113196932232,166.197640439222,135.981420270454,113.736908285034,112.96490867776,102.51923035898,97.7910247675001,90.6857044606556,81.3458050216346,77.8172035691926,71.6621479038813,66.3922319811824,59.3394260547459,52.9324297690229,47.0257007610823,42.3671979267845,38.0172904099934,32.8267620178477,28.5085496337863,24.8015046018362,22.2382056766006,20.4338418162961,16.7185970608657,13.6788521407083,11.1917874689903,9.15691629363693,4,4,4,4,4,4,4,4,4,4,4,4,4,4,4,4,4,4,4,4,4,4,4,4,4,4,4,4,4,4,4,4,4,4,4,4,4,4,4,4,4,4,4,4,4,4,4,4,4,4,4,4,4,4,4,4,40.5993535868056,49.6214321616513,4,4,4,4,4,4,4,4,4,4,4,4,4,64.1851001497766,78.4484557386159,95.881446792568,115.931586077117,4,4,9.66453334905065,4,4,4,4,4,4,4,4
2597.45660042357,2582.10679834226,2562.39125181737,2533.08441626574,2518.38864189321,2525.34490888269,2525.53153913669,2515.70136044233,2502.42022936555,2480.95104056216,2442.97643353292,2406.53399634409,2389.74946094831,2387.76046088851,2382.40755848421,2371.53027320969,2349.54833622668,2331.37870534133,2320.21677099299,2312.87056052164,2338.60335683771,2135.64956540258,1897.45310891841,1784.15451559975,1752.11384209076,1594.8590325008,1359.49159722354,1396.84905796645,1374.17756184834,1389.55157847727,1418.05788518335,1558.17868800215,1510.21779600497,1437.92812302575,1409.41015395331,1389.54217123914,1334.12587186514,1311.83493569536,1137.94222069465,977.197649134473,1114.68243403689,1243.54221844548,1271.01974999178,1083.23384167784,953.501174776449,831.474177043106,715.891064915066,680.229682876168,619.708387701491,605.55342937523,618.934288437117,661.407455179464,765.626708185451,750.527917902644,632.393565191138,517.412916177655,423.337840508991,346.367323394341,283.391445670101,257.736279365541,247.894599455778,203.08594058384,166.183524104804,135.979886900059,120.513507153296,112.411891066343,105.27847365683,99.8327992861809,94.1868211580967,86.9967141626136,79.0229313063667,75.2637571297035,70.2308210379129,63.7259108226092,57.1316831194186,49.9590655372008,47.0607145550155,42.1474413980147,37.5500009188214,33.0961424169928,28.2134923366953,23.825657602764,22.0904416318361,19.5931854109431,16.0307873423445,13.1160987346455,10.731352919464,8.78019717907622,4,4,4,4,4,4,4,4,4,4,4,4,4,4,4,4,4,4,4,4,4,4,4,4,4,4,4,4,4,4,4,4,4,4,4,4,4,4,4,4,4,4,4,4,4,4,4,4,4,4,4,4,4,4,4,4,4,60.6484178424138,4,4,4,4,4,4,4,4,4,4,4,4,4,4,87.8228401092979,107.339026800253,94.8531151521824,4,14.4371441393704,11.8122081757854,4,4,4,4,4,4,4,4
2598,2583.65912682737,2564.32559778227,2542.68618541699,2519.56946742914,2521.655559556,2513.5999172844,2505.00930180585,2501.37257555828,2480.40989447895,2437.58487669768,2400.91058848254,2384.63504493522,2377.57086648465,2371.73473631921,2360.74871084327,2339.02029759707,2321.69564004237,2307.1378987881,2305.74282971128,2332.17857884472,2101.87538218778,1849.49117964682,1756.77156727555,1742.2804652318,1565.38502504759,1353.49240671292,1366.7260963222,1363.76967849594,1375.53038071127,1394.71340018564,1524.03117790805,1486.80829704232,1464.2868407468,1407.69244437799,1331.12651661841,1283.65799968176,1262.54549534887,1088.86428169881,890.888957753573,912.012900575633,1078.08532833541,1153.16075469901,974.593223527933,881.152428713876,793.816449087039,716.102495577315,647.892115297056,590.922136413592,566.91196411982,554.661596159518,591.733390635283,708.02492217473,638.346885255824,522.283814523827,427.323120235881,349.628007465721,286.059278225667,234.048499720292,210.875136930551,202.822853102781,166.161223444083,135.968337164622,126.449582719617,117.726631092497,108.931392209818,104.621687790747,98.5284070024917,90.1270126733931,82.5075022750428,75.4170441408674,73.3361307592189,69.0522569448458,62.0890790401746,54.0537829478455,49.0272095468845,45.3886060282351,41.0152520924106,36.2224061524597,32.337832302094,27.1090092895437,23.7879075532539,21.2496938851494,18.5867185928002,15.2073143479976,12.4423481029071,10.1801022853414,8.32917380115717,4,4,4,4,4,4,4,4,4,4,4,4,4,4,4,4,4,4,4,4,4,4,4,4,4,4,4,4,4,4,4,4,4,4,4,4,4,4,4,4,4,4,4,4,4,4,4,4,4,4,4,4,4,4,4,4,4,59.9080499733686,4,4,4,4,4,4,4,4,4,14.7328878867825,4,4,4,83.9868698945493,102.650619910461,125.461868779453,4,4,17.6453992864379,4,4,4,4,4,4,4,4,4
2597.99346384538,2585.77997538962,2568.05846857252,2547.87313619772,2526.06465609611,2520.76824848328,2504.5976557381,2499.21463152874,2501,2478.15075407947,2433.23631776901,2399.33532793827,2379.94088511948,2367.40873531606,2359.98092264197,2348.62831790748,2328.4669940326,2313.12843298842,2301.56524494684,2307.05639058364,2326.39609597406,2036.39949800509,1758.21903683114,1715.32115461067,1713.21390408981,1515.28856709189,1348.12210390159,1347.53400467933,1356.30271685735,1365.50890865461,1380.7259616845,1453.71503386162,1467.07171915312,1455.29538515623,1384.7631490766,1292.51722207601,1222.2480246595,1090.56845883436,1094.20896318749,907.048812731834,746.19237222824,895.612209198278,1050.1714622426,907.790180924633,836.973884992922,749.42236787404,681.488698671904,594.257599469168,538.910588763176,521.936147560767,528.117692445175,554.690737219849,603.617326799551,522.901534496025,427.828527318633,350.041522351609,286.397608448056,234.325315090792,191.720711513798,172.534202285199,165.945969913402,141.276548928117,132.414168681585,122.074106333881,114.194936140458,107.548225035609,100.581443831135,95.5557163779138,87.0128974505558,79.7629950804506,74.747605811688,71.4957668566003,66.1652112113061,60.2400593212014,53.5360399759447,48.7865324129905,45.1238768772721,40.3685456608227,35.0700035800262,31.1412391914851,27.4499401896303,24.26044490648,21.927143811908,17.9403895230837,14.6785005188867,12.0096815312831,9.82610220819176,8.03953738550135,4,4,4,4,4,4,4,4,4,4,4,4,4,4,4,4,4,4,4,4,4,4,4,4,4,4,4,4,4,4,4,4,4,4,4,4,4,4,4,4,4,4,4,4,4,4,4,4,4,4,4,4,4,4,4,4,40.7579207009217,49.8152375217259,60.8852912041484,4,4,4,4,4,4,4,4,18.0068635808704,22.0083894572975,4,4,89.6684267952544,109.594744743947,133.949133279754,4,26.3591789683581,21.5666001131915,4,4,4,4,4,4,4,4,4
2597,2587.7184423234,2573.69222064066,2553.38507784765,2533.11084608895,2521.67976985539,2501.33345632202,2497.03089544159,2500.00025711711,2473.54334593325,2429.12577834328,2397.34402971502,2375.62794750531,2358.43179952051,2348.72171248527,2336.5016106221,2318.16198830851,2305.9822206926,2299.94059197901,2309.29941801702,2314.34410100132,2027.0905911345,1728.77145002404,1676.70384178349,1591.75404048946,1427.6793549197,1344.18247857936,1340.72030764817,1353.28309971577,1361.21032820667,1373.26724047971,1432.09321539115,1451.13586821584,1449.15411436696,1353.33203026879,1256.2578687764,1127.86421558861,1065.70599484655,1029.01819077099,916.847941141007,750.148315479006,791.003613010281,931.048052530816,901.841487486498,826.051700509781,740.617732311867,657.9236949147,563.342984735342,538.599288231817,540.613402136569,520.504189978045,524.379064515104,525.063154062482,429.597125388983,351.488556423071,287.581546164331,235.293991726347,192.513265332725,169.482823960724,160.440458695964,150.628074449884,134.277327744267,126.810262058488,119.28638364993,110.165622086607,105.481106168393,100.424208942628,91.9790294892901,84.8310763119721,78.7161475575588,71.737147733103,70.4487915134825,64.1946899234289,59.0738877761939,52.4978994775855,48.7312125199185,43.4649034475542,40.8495364357373,34.7271501363182,30.9598078253459,27.1915684852697,22.881169923892,21.5240328116889,17.6105723004728,14.4086495906058,11.7888942582804,9.64545797017927,4,4,4,4,4,4,4,4,4,4,4,4,4,4,4,4,4,4,4,4,4,4,4,4,4,4,4,4,4,4,4,4,4,4,4,4,4,4,4,4,4,4,4,4,4,4,4,4,4,4,4,4,4,4,4,4,4,33.3473888243668,4,74.4153559161814,4,4,4,4,4,4,4,4,4,26.8991433284309,32.8767314184609,4,73.3650757641172,89.6684267971044,109.594744652849,4,32.2167753790901,4,4,4,4,4,4,4,4,4,4
2597.58325729732,2589.8531420253,2582.36354160149,2560.50792126626,2540.38841310428,2522.48627947248,2501.23188033204,2496.36323488587,2495.18457381246,2466.69457221257,2425.2814312894,2397.17435179239,2371.97801273061,2350.79430100565,2337.59201183357,2324.39411165402,2309.44267817122,2300.9659866228,2299,2311.75308817928,2303.82377332198,2059.04462735642,1773.68019477205,1631.84099257011,1473.25222806992,1372.24183501304,1347.75753780638,1342.37985950281,1356.98133414985,1366.6484021367,1371.2936571921,1385.89945776295,1373.87845037413,1373.08230373762,1292.35523512861,1219.26550984644,1105.99370023408,978.14403566383,970.448609340758,890.51940201439,728.606783466319,769.516558798912,879.788634321617,908.462183343524,824.757490532932,742.999313527602,670.299876980543,610.767343747992,580.402350900134,545.487718027107,500.060775558545,463.490255763851,431.593619921751,353.122051920268,288.918042480219,236.387488687043,193.407944594535,174.915192484859,164.110404558853,151.68112737318,139.562984032027,130.182449059436,122.52588496807,115.210181696353,108.896055525454,103.064528685946,97.1336338061172,89.2707438240774,84.0880795758446,77.3733939062172,71.5967893009961,69.1306597066597,64.2968047044438,57.7856876690788,51.1980064937968,47.7046957445721,42.2914181200173,38.8652558912111,34.2181191735888,29.9404502971534,27.126650300966,24.53954713378,20.173881368887,16.5059021056582,13.5048289955386,11.0494048598159,9.04042139123427,4,4,4,4,4,4,4,4,4,4,4,4,4,4,4,4,4,4,4,4,4,4,4,4,4,4,4,4,4,4,4,4,4,4,4,4,4,4,4,4,4,4,4,4,4,4,4,4,4,4,4,4,4,4,4,4,4,4,4,90.9521027750853,4,4,4,4,4,4,4,4,4,32.8767314496923,40.1826728675177,49.1121568008,60.0259703574085,73.3650757579463,89.6684264575068,4,39.3760598860615,4,4,4,4,4,4,4,4,4,4
2598,2591.88652980172,2585.14997292521,2563.49074568464,2542.70626317018,2524.45172445979,2501.69861318604,2496,2487.99404094014,2457.9943472194,2420.46855297052,2397.0047326919,2368.87182972836,2343.28416556865,2327.61732685271,2314.15571330027,2302.59132479533,2299.00218081177,2299.90772542942,2314.82120580649,2302.76983926767,2113.06436885206,1848.07027448403,1590.17700039533,1388.15516007415,1366.75804675212,1364.36292318393,1349.26649594407,1370.6085579655,1386.18228689196,1386.5756326641,1437.18377698313,1412.55113646833,1331.27155053087,1274.32953778271,1170.30437738448,1088.39677107379,1014.44606327207,959.440864988148,882.820363653993,722.307570262358,751.46065512068,848.524158478907,912.104863764299,831.074153123431,743.920989802123,698.009740600299,634.871034414371,562.258165825956,525.359853709587,492.388706840694,445.551473202987,364.542113613379,298.261729320037,244.032323305346,199.662809204097,180.692325496492,173.942778508355,160.688027211714,145.831665588656,133.891634924368,126.161660756093,118.866238289204,113.202240892358,106.785289645117,101.058763075515,94.626406556755,88.5043885606013,84.991946283294,77.9539911269268,71.341900357999,67.3736122434256,62.5415597470542,55.0152230865284,49.5488550975423,45.8927397212947,42.551628051802,38.3365653485036,33.4468106571456,29.4555324408599,26.3450864420915,22.9290907919711,18.9681132324922,15.519365372039,12.6976621260196,10.3889954642159,8.50008627522637,4,4,4,4,4,4,4,4,4,4,4,4,4,4,4,4,4,4,4,4,4,4,4,4,4,4,4,4,4,4,4,4,4,4,4,4,4,4,4,4,4,4,4,4,4,4,4,4,4,4,4,4,4,4,4,4,4,4,4,81.2149086892868,70.9474688413759,4,4,4,4,4,4,4,22.0083890956252,26.8991432056136,32.8767316158331,40.1826729784093,4,89.6684258797977,107.394776788169,4,48.126296519353,4,4,4,4,4,4,4,4,4,4
2599.11722534341,2593,2589.3338738488,2568.90888624731,2547.49218679903,2527.43161082267,2503.00567689255,2495.79175848264,2480.81189981512,2449.10787107695,2415.60559658123,2395.83515256054,2365.36649468331,2336.50726327786,2319.07683191822,2306.19850163291,2299.14986220892,2297.75663307097,2301.48938292251,2315.44269920576,2302.38964620482,2157.6636603409,1888.57507967233,1559.86516476616,1371.6343006687,1375.52848075727,1391.255067213,1361.02485618094,1393.55128302219,1427.97006445067,1465.40097333761,1462.74250062135,1429.68338946448,1335.46176984043,1281.37190394672,1216.68187800425,1099.97430512528,1036.99411829466,985.551461714982,893.710005379791,731.21727712892,737.989747052642,833.863247785826,917.989662592923,857.459205316675,770.854416239221,706.816923340486,638.813273615719,566.22710265205,544.284720287511,498.393839071806,407.776776594345,333.635544486282,272.974535711297,223.342801107989,182.735018322246,176.847982778828,167.283932612829,153.346386395915,138.777343646618,127.801995017273,122.101875722823,116.403456869338,109.840683749105,103.519725262465,98.8228471682571,93.6334320576499,88.86830421202,81.6325842772217,72.0713086928575,68.3035003657176,64.8130216990551,60.4547357750585,53.3076439044708,49.8006173577696,45.5963154026489,40.8594209880353,36.6872632326542,31.7585788183286,29,26.8534139005309,22.4784705116236,18.3914750079408,15.0475704610424,12.3116478502133,10.0731655631729,8.24168013328992,4,4,4,4,4,4,4,4,4,4,4,4,4,4,4,4,4,4,4,4,4,4,4,4,4,4,4,4,4,4,4,4,4,4,4,4,4,4,4,4,4,4,4,4,4,4,4,4,4,4,4,4,4,4,4,4,4,4,4,4,86.7135730283483,89.766922527045,4,4,4,4,4,4,18.0068630528831,4,26.899144092983,32.8767324368804,4,107.394777720046,87.8684537357746,71.8923706676283,58.821030090775,4,4,4,4,4,4,4,4,4,4
2600.92861815464,2594,2592,2575.39021596077,2551.50041718227,2529.60189734264,2504.93616462941,2495.63336379182,2474.88295575577,2440.29849593244,2411.75574628733,2394.66514574689,2361.95232551936,2329.50557042798,2311.93486083644,2300.93642640653,2296.07314634967,2296.57825958625,2303.93202912441,2312.98092301446,2295.43154159909,2140.43809808532,1799.44686772306,1586.00101815062,1401.86862979393,1393.96168871119,1395.67460960939,1375.36135265959,1432.64722167925,1486.00292483978,1497.87245839816,1456.15505235758,1437.51004389056,1399.44185261502,1300.43584717217,1207.1076378206,1116.50729602056,1094.78309490024,1051.33577050163,925.340399788124,803.67548619398,746.607144483632,826.083132266237,891.769418407287,875.265783654895,788.430659789061,729.240548915275,703.868849163167,627.338356786899,592.630224843506,486.350886130973,397.923451626005,325.573732433657,266.37850835481,217.94605169809,178.319496215666,169.648350571323,161.7240102546,147.001332525195,133.16332785613,126.537804621416,120.411471531718,113.773209155606,107.030779050339,101.379970333827,96.1257456280819,91.3802254852083,86.8939113895472,78.1616791787377,71.588480503112,67.2953951617653,63.9572518107164,58.3573650675394,52.902704935165,48.9377973060749,42.995639682927,40.0009713867032,36.0531988356021,32.0230109770986,28.7207792153795,26.2252515172746,22.2124143375034,18.1737935488664,14.869466995766,12.1659267172388,9.95393911401211,4,4,4,4,4,4,4,4,4,4,4,4,4,4,4,4,4,4,4,4,4,4,4,4,4,4,4,4,4,4,4,4,4,4,4,4,4,4,4,4,4,4,4,4,4,4,4,4,4,4,4,4,4,4,4,4,4,4,4,4,4,81.7201057587276,99.8801292606671,4,4,4,4,4,12.054179854638,14.7328872663553,4,22.0083899891133,4,4,125.652553274255,107.394776774266,87.8684530235506,71.8923700464409,4,4,4,4,4,4,4,4,4,4
